ply
format ascii 1.0
comment Created by Open3D
element vertex 4122
property double x
property double y
property double z
end_header
152 511 174
152 511 175
152 511 176
152 511 177
152 511 181
152 511 182
152 511 183
152 511 184
152 511 185
152 511 186
152 512 53
152 512 54
152 512 55
152 512 70
152 512 71
152 512 101
152 512 102
152 512 103
152 512 104
152 512 128
152 512 160
152 512 161
152 512 162
152 512 163
152 512 164
152 512 175
152 512 176
152 512 177
152 512 178
152 512 179
152 512 183
152 512 184
152 512 185
152 512 186
152 512 187
152 513 53
152 513 54
152 513 55
152 513 71
152 513 101
152 513 102
152 513 103
152 513 128
152 513 159
152 513 160
152 513 161
152 513 162
152 513 163
152 513 183
152 513 184
152 513 185
152 513 186
152 513 187
152 513 188
152 514 53
152 514 54
152 514 55
152 514 71
152 514 101
152 514 102
152 514 103
152 514 128
152 514 159
152 514 160
152 514 161
152 514 162
152 514 163
152 514 184
152 514 185
152 514 186
152 514 188
152 515 53
152 515 54
152 515 55
152 515 71
152 515 72
152 515 101
152 515 102
152 515 103
152 515 127
152 515 158
152 515 159
152 515 160
152 515 161
152 515 162
152 515 184
152 515 185
152 515 186
152 515 188
152 516 53
152 516 54
152 516 55
152 516 71
152 516 72
152 516 102
152 516 103
152 516 127
152 516 158
152 516 159
152 516 160
152 516 161
152 516 184
152 516 185
152 516 186
152 516 188
152 517 53
152 517 54
152 517 55
152 517 71
152 517 72
152 517 103
152 517 127
152 517 157
152 517 158
152 517 159
152 517 160
152 517 161
152 517 185
152 517 189
152 518 53
152 518 54
152 518 55
152 518 71
152 518 72
152 518 127
152 518 128
152 518 129
152 518 130
152 518 157
152 518 158
152 518 159
152 518 185
152 518 189
152 519 53
152 519 54
152 519 55
152 519 71
152 519 72
152 519 93
152 519 100
152 519 127
152 519 128
152 519 129
152 519 130
152 519 131
152 519 157
152 519 158
152 519 190
152 520 53
152 520 54
152 520 55
152 520 72
152 520 93
152 520 100
152 520 127
152 520 128
152 520 129
152 520 130
152 520 131
152 520 132
152 520 156
152 520 157
152 520 158
152 520 190
152 521 52
152 521 53
152 521 54
152 521 55
152 521 72
152 521 100
152 521 127
152 521 128
152 521 129
152 521 130
152 521 131
152 521 132
152 521 156
152 521 157
152 521 158
152 522 52
152 522 53
152 522 54
152 522 55
152 522 72
152 522 73
152 522 94
152 522 100
152 522 127
152 522 128
152 522 129
152 522 130
152 522 131
152 522 132
152 522 133
152 522 143
152 522 155
152 522 156
152 522 157
152 523 52
152 523 53
152 523 54
152 523 73
152 523 94
152 523 95
152 523 100
152 523 127
152 523 128
152 523 129
152 523 130
152 523 131
152 523 132
152 523 133
152 523 142
152 523 143
152 523 144
152 523 145
152 523 146
152 523 147
152 523 154
152 523 155
152 523 156
152 523 191
152 524 51
152 524 52
152 524 53
152 524 73
152 524 74
152 524 94
152 524 95
152 524 96
152 524 99
152 524 100
152 524 127
152 524 128
152 524 129
152 524 130
152 524 131
152 524 132
152 524 133
152 524 140
152 524 141
152 524 142
152 524 143
152 524 144
152 524 145
152 524 146
152 524 147
152 524 148
152 524 149
152 524 150
152 524 151
152 524 152
152 524 153
152 524 154
152 524 155
152 524 191
152 525 51
152 525 52
152 525 53
152 525 73
152 525 74
152 525 75
152 525 95
152 525 96
152 525 97
152 525 98
152 525 99
152 525 100
152 525 127
152 525 128
152 525 129
152 525 130
152 525 131
152 525 132
152 525 133
152 525 134
152 525 140
152 525 141
152 525 142
152 525 143
152 525 144
152 525 145
152 525 146
152 525 147
152 525 148
152 525 149
152 525 150
152 525 151
152 525 152
152 525 153
152 525 154
152 525 191
152 526 51
152 526 52
152 526 53
152 526 73
152 526 74
152 526 75
152 526 96
152 526 97
152 526 98
152 526 99
152 526 100
152 526 127
152 526 128
152 526 129
152 526 130
152 526 131
152 526 132
152 526 133
152 526 134
152 526 139
152 526 140
152 526 141
152 526 142
152 526 145
152 526 146
152 526 147
152 526 148
152 526 149
152 526 150
152 526 151
152 526 152
152 526 191
152 527 50
152 527 52
152 527 53
152 527 74
152 527 75
152 527 76
152 527 93
152 527 96
152 527 97
152 527 98
152 527 99
152 527 100
152 527 127
152 527 128
152 527 129
152 527 130
152 527 131
152 527 132
152 527 133
152 527 138
152 527 139
152 527 140
152 527 141
152 527 142
152 527 191
152 528 50
152 528 52
152 528 75
152 528 76
152 528 77
152 528 78
152 528 92
152 528 93
152 528 97
152 528 98
152 528 99
152 528 100
152 528 127
152 528 128
152 528 129
152 528 130
152 528 131
152 528 132
152 528 133
152 528 134
152 528 137
152 528 138
152 528 139
152 528 140
152 528 141
152 528 191
152 529 50
152 529 52
152 529 76
152 529 77
152 529 78
152 529 92
152 529 93
152 529 97
152 529 98
152 529 99
152 529 127
152 529 128
152 529 129
152 529 130
152 529 131
152 529 132
152 529 133
152 529 134
152 529 137
152 529 138
152 529 139
152 529 140
152 529 141
152 529 191
152 530 50
152 530 52
152 530 77
152 530 78
152 530 79
152 530 91
152 530 92
152 530 93
152 530 97
152 530 98
152 530 99
152 530 127
152 530 128
152 530 129
152 530 130
152 530 131
152 530 132
152 530 133
152 530 134
152 530 137
152 530 138
152 530 139
152 530 140
152 530 141
152 530 191
152 531 50
152 531 52
152 531 78
152 531 79
152 531 80
152 531 81
152 531 91
152 531 92
152 531 97
152 531 98
152 531 99
152 531 127
152 531 128
152 531 129
152 531 130
152 531 131
152 531 132
152 531 133
152 531 134
152 531 135
152 531 136
152 531 137
152 531 138
152 531 139
152 531 140
152 531 141
152 531 191
152 532 52
152 532 79
152 532 80
152 532 81
152 532 82
152 532 83
152 532 84
152 532 85
152 532 90
152 532 91
152 532 92
152 532 97
152 532 98
152 532 99
152 532 127
152 532 128
152 532 129
152 532 130
152 532 131
152 532 132
152 532 133
152 532 134
152 532 135
152 532 136
152 532 137
152 532 138
152 532 139
152 532 140
152 532 141
152 533 52
152 533 80
152 533 81
152 533 82
152 533 83
152 533 84
152 533 85
152 533 86
152 533 87
152 533 88
152 533 89
152 533 90
152 533 91
152 533 92
152 533 97
152 533 98
152 533 126
152 533 127
152 533 128
152 533 129
152 533 130
152 533 131
152 533 132
152 533 133
152 533 134
152 533 135
152 533 136
152 533 137
152 533 138
152 533 139
152 533 140
152 533 141
152 534 52
152 534 82
152 534 83
152 534 84
152 534 85
152 534 86
152 534 87
152 534 88
152 534 89
152 534 90
152 534 91
152 534 92
152 534 97
152 534 98
152 534 126
152 534 127
152 534 128
152 534 129
152 534 130
152 534 131
152 534 132
152 534 133
152 534 134
152 534 135
152 534 136
152 534 137
152 534 138
152 534 139
152 534 140
152 534 141
152 535 52
152 535 84
152 535 85
152 535 86
152 535 87
152 535 88
152 535 89
152 535 90
152 535 91
152 535 92
152 535 97
152 535 98
152 535 125
152 535 126
152 535 127
152 535 128
152 535 129
152 535 130
152 535 131
152 535 132
152 535 133
152 535 134
152 535 135
152 535 136
152 535 137
152 535 138
152 535 139
152 535 140
152 535 141
152 536 52
152 536 86
152 536 87
152 536 88
152 536 89
152 536 90
152 536 97
152 536 98
152 536 125
152 536 126
152 536 127
152 536 128
152 536 129
152 536 130
152 536 131
152 536 132
152 536 133
152 536 134
152 536 135
152 536 136
152 536 137
152 536 138
152 536 139
152 536 140
152 536 141
152 537 52
152 537 97
152 537 98
152 537 125
152 537 126
152 537 127
152 537 128
152 537 129
152 537 130
152 537 131
152 537 132
152 537 133
152 537 134
152 537 135
152 537 136
152 537 137
152 537 138
152 537 139
152 537 140
152 537 141
152 538 52
152 538 137
152 538 138
152 538 139
152 538 140
152 538 141
152 539 52
152 539 124
152 539 139
152 539 140
152 539 141
152 540 52
152 540 139
152 540 140
152 540 141
152 541 52
152 541 140
152 541 141
152 542 52
152 542 124
152 542 140
152 542 141
152 542 142
152 543 52
152 543 123
152 543 140
152 543 141
152 543 142
152 544 52
152 544 124
152 544 140
152 544 141
152 544 142
152 545 52
152 545 122
152 545 123
152 545 124
152 545 140
152 545 141
152 545 142
152 546 52
152 546 122
152 546 123
152 546 125
152 546 141
152 546 142
152 547 52
152 547 122
152 547 125
152 547 141
152 547 142
152 548 52
152 548 122
152 548 125
152 548 141
152 548 142
152 548 143
152 549 52
152 549 122
152 549 125
152 549 141
152 549 142
152 549 143
152 549 144
152 550 52
152 550 121
152 550 125
152 550 142
152 550 143
152 550 144
152 550 145
152 551 52
152 551 121
152 551 125
152 551 142
152 551 143
152 551 144
152 551 145
152 551 146
152 551 190
152 552 52
152 552 120
152 552 125
152 552 142
152 552 143
152 552 144
152 552 145
152 552 146
152 552 147
152 552 190
152 553 44
152 553 52
152 553 120
152 553 125
152 553 142
152 553 143
152 553 144
152 553 145
152 553 146
152 553 147
152 553 148
152 553 190
152 554 52
152 554 53
152 554 120
152 554 143
152 554 144
152 554 145
152 554 146
152 554 147
152 554 148
152 554 149
152 554 150
152 555 52
152 555 53
152 555 119
152 555 124
152 555 143
152 555 144
152 555 145
152 555 146
152 555 147
152 555 148
152 555 149
152 555 150
152 555 151
152 555 189
152 556 52
152 556 53
152 556 119
152 556 124
152 556 143
152 556 144
152 556 145
152 556 146
152 556 147
152 556 148
152 556 149
152 556 150
152 556 151
152 556 189
152 557 53
152 557 118
152 557 124
152 557 125
152 557 142
152 557 143
152 557 144
152 557 145
152 557 146
152 557 147
152 557 148
152 557 149
152 557 150
152 557 151
152 557 152
152 557 186
152 557 187
152 558 53
152 558 54
152 558 118
152 558 124
152 558 142
152 558 143
152 558 144
152 558 145
152 558 146
152 558 147
152 558 148
152 558 149
152 558 150
152 558 151
152 558 152
152 558 185
152 559 53
152 559 54
152 559 118
152 559 141
152 559 142
152 559 143
152 559 144
152 559 145
152 559 146
152 559 147
152 559 148
152 559 149
152 559 150
152 559 151
152 559 183
152 560 53
152 560 54
152 560 117
152 560 118
152 560 141
152 560 142
152 560 143
152 560 144
152 560 145
152 560 146
152 560 147
152 560 148
152 561 53
152 561 54
152 561 117
152 561 118
152 561 140
152 561 141
152 561 142
152 561 143
152 561 144
152 561 145
152 561 146
152 561 180
152 561 181
152 562 53
152 562 54
152 562 116
152 562 118
152 562 124
152 562 140
152 562 141
152 562 142
152 562 143
152 562 144
152 562 145
152 563 53
152 563 54
152 563 116
152 563 118
152 563 124
152 563 139
152 563 140
152 563 141
152 563 142
152 563 143
152 563 179
152 564 53
152 564 54
152 564 116
152 564 118
152 564 124
152 564 138
152 564 139
152 564 140
152 564 141
152 564 142
152 564 178
152 565 53
152 565 54
152 565 116
152 565 118
152 565 124
152 565 138
152 565 139
152 565 140
152 565 141
152 565 177
152 566 53
152 566 54
152 566 116
152 566 118
152 566 124
152 566 137
152 566 138
152 566 139
152 566 140
152 566 141
152 566 176
152 567 53
152 567 54
152 567 117
152 567 119
152 567 124
152 567 137
152 567 138
152 567 139
152 567 140
152 567 175
152 568 53
152 568 54
152 568 117
152 568 119
152 568 124
152 568 136
152 568 137
152 568 138
152 568 139
152 568 174
152 569 53
152 569 54
152 569 118
152 569 120
152 569 135
152 569 136
152 569 137
152 569 138
152 569 173
152 570 53
152 570 54
152 570 119
152 570 120
152 570 133
152 570 134
152 570 135
152 570 136
152 570 137
152 570 172
152 571 53
152 571 54
152 571 119
152 571 120
152 571 124
152 571 125
152 571 131
152 571 132
152 571 133
152 571 134
152 571 135
152 571 136
152 571 171
152 572 53
152 572 54
152 572 120
152 572 121
152 572 125
152 572 130
152 572 131
152 572 132
152 572 133
152 572 134
152 572 135
152 572 169
152 572 170
152 573 53
152 573 54
152 573 120
152 573 121
152 573 127
152 573 128
152 573 129
152 573 130
152 573 131
152 573 132
152 573 133
152 573 134
152 573 168
152 573 169
152 574 53
152 574 54
152 574 121
152 574 122
152 574 126
152 574 127
152 574 128
152 574 129
152 574 130
152 574 131
152 574 132
152 574 133
152 574 167
152 574 168
152 575 53
152 575 54
152 575 121
152 575 122
152 575 126
152 575 127
152 575 128
152 575 129
152 575 130
152 575 131
152 575 132
152 575 165
152 575 166
152 576 53
152 576 54
152 576 121
152 576 122
152 576 126
152 576 127
152 576 128
152 576 129
152 576 130
152 576 131
152 576 132
152 576 133
152 576 163
152 576 164
152 576 165
152 577 53
152 577 54
152 577 121
152 577 122
152 577 126
152 577 127
152 577 128
152 577 129
152 577 130
152 577 131
152 577 132
152 577 133
152 577 134
152 577 135
152 577 136
152 577 137
152 577 138
152 577 139
152 577 140
152 577 141
152 577 142
152 577 162
152 577 163
152 578 53
152 578 54
152 578 122
152 578 123
152 578 125
152 578 130
152 578 131
152 578 132
152 578 133
152 578 134
152 578 135
152 578 136
152 578 137
152 578 138
152 578 139
152 578 140
152 578 141
152 578 142
152 578 143
152 578 144
152 578 145
152 578 146
152 578 147
152 578 148
152 578 149
152 578 150
152 578 151
152 578 152
152 578 153
152 578 160
152 578 161
152 579 53
152 579 54
152 579 122
152 579 124
152 579 125
152 579 143
152 579 144
152 579 145
152 579 146
152 579 147
152 579 148
152 579 149
152 579 150
152 579 151
152 579 152
152 579 153
152 579 154
152 579 155
152 579 156
152 579 157
152 579 158
152 579 159
152 580 53
152 580 54
152 580 123
152 580 124
152 580 155
152 580 156
152 580 157
152 580 158
152 581 53
152 581 54
152 581 121
152 581 122
152 582 53
152 582 54
152 582 120
152 582 121
152 583 53
152 583 54
152 583 119
152 583 120
152 584 53
152 584 54
152 584 118
152 584 119
152 585 53
152 585 54
152 585 117
152 585 118
152 586 53
152 586 54
152 586 55
152 586 116
152 586 117
152 587 54
152 587 55
152 587 115
152 587 117
152 588 55
152 588 115
152 588 116
152 589 54
152 589 55
152 589 56
152 589 114
152 589 116
152 590 54
152 590 55
152 590 56
152 590 114
152 590 116
152 591 54
152 591 55
152 591 56
152 591 57
152 591 114
152 591 115
152 592 54
152 592 55
152 592 56
152 592 57
152 592 58
152 592 114
152 592 115
152 593 54
152 593 55
152 593 56
152 593 57
152 593 58
152 593 114
152 593 115
152 594 54
152 594 55
152 594 56
152 594 57
152 594 58
152 594 115
152 595 54
152 595 55
152 595 56
152 595 57
152 595 58
152 595 115
152 595 116
152 596 54
152 596 55
152 596 56
152 596 57
152 596 58
152 596 115
152 596 116
152 597 54
152 597 55
152 597 56
152 597 57
152 597 58
152 597 116
152 598 54
152 598 55
152 598 56
152 598 57
152 598 58
152 598 116
152 599 54
152 599 55
152 599 56
152 599 57
152 599 58
152 599 116
152 599 117
152 600 54
152 600 55
152 600 56
152 600 57
152 600 58
152 600 116
152 600 117
152 601 54
152 601 55
152 601 56
152 601 57
152 601 58
152 601 116
152 601 117
152 602 54
152 602 55
152 602 56
152 602 57
152 602 58
152 602 116
152 602 117
152 603 54
152 603 55
152 603 56
152 603 57
152 603 58
152 603 116
152 603 117
152 604 54
152 604 55
152 604 56
152 604 57
152 604 58
152 604 116
152 604 117
152 605 54
152 605 55
152 605 56
152 605 57
152 605 58
152 605 116
152 605 117
152 606 54
152 606 55
152 606 56
152 606 57
152 606 58
152 606 116
152 606 117
152 607 54
152 607 55
152 607 56
152 607 57
152 607 58
152 607 117
152 608 54
152 608 55
152 608 56
152 608 57
152 608 58
152 608 117
152 608 118
152 609 54
152 609 55
152 609 56
152 609 57
152 609 58
152 609 118
152 610 54
152 610 55
152 610 56
152 610 57
152 610 58
152 610 119
152 611 54
152 611 55
152 611 56
152 611 57
152 611 58
152 611 119
152 612 54
152 612 55
152 612 56
152 612 57
152 612 58
152 612 119
152 612 120
152 613 54
152 613 55
152 613 56
152 613 57
152 613 58
152 613 120
152 614 54
152 614 55
152 614 56
152 614 57
152 614 58
152 614 120
152 615 54
152 615 55
152 615 56
152 615 57
152 615 58
152 615 120
152 616 54
152 616 55
152 616 56
152 616 57
152 616 58
152 616 120
152 617 54
152 617 55
152 617 56
152 617 57
152 617 58
152 617 120
152 618 55
152 618 56
152 618 57
152 618 58
152 618 59
152 618 120
152 619 55
152 619 56
152 619 57
152 619 58
152 619 59
152 619 120
152 620 55
152 620 56
152 620 57
152 620 58
152 620 59
152 620 120
152 621 56
152 621 57
152 621 58
152 621 59
152 621 60
152 621 120
152 622 56
152 622 57
152 622 58
152 622 59
152 622 60
152 622 120
152 623 56
152 623 57
152 623 58
152 623 59
152 623 60
152 623 61
152 623 119
152 623 120
152 624 57
152 624 58
152 624 59
152 624 60
152 624 61
152 624 119
152 625 57
152 625 58
152 625 59
152 625 60
152 625 61
152 625 119
152 626 57
152 626 58
152 626 59
152 626 60
152 626 61
152 626 118
152 627 57
152 627 58
152 627 59
152 627 60
152 627 61
152 627 118
152 628 57
152 628 58
152 628 59
152 628 60
152 628 61
152 628 118
152 629 57
152 629 58
152 629 59
152 629 60
152 629 61
152 629 117
152 630 57
152 630 58
152 630 59
152 630 60
152 630 61
152 630 117
152 631 57
152 631 58
152 631 59
152 631 60
152 631 61
152 631 117
152 632 57
152 632 58
152 632 59
152 632 60
152 632 61
152 632 117
152 633 57
152 633 58
152 633 59
152 633 60
152 633 61
152 633 117
152 634 57
152 634 58
152 634 59
152 634 60
152 634 61
152 634 62
152 634 117
152 635 57
152 635 58
152 635 59
152 635 60
152 635 61
152 635 62
152 635 117
152 636 57
152 636 58
152 636 59
152 636 60
152 636 61
152 636 62
152 636 117
152 637 57
152 637 58
152 637 59
152 637 60
152 637 61
152 637 62
152 637 117
152 638 57
152 638 58
152 638 59
152 638 60
152 638 61
152 638 62
152 638 117
152 639 57
152 639 58
152 639 59
152 639 60
152 639 61
152 639 62
152 639 117
152 640 57
152 640 58
152 640 59
152 640 60
152 640 61
152 640 62
152 640 117
152 641 58
152 641 59
152 641 60
152 641 61
152 641 62
152 641 117
152 642 58
152 642 59
152 642 60
152 642 61
152 642 62
152 642 117
152 643 58
152 643 59
152 643 60
152 643 61
152 643 62
152 643 63
152 643 117
152 644 58
152 644 59
152 644 60
152 644 61
152 644 62
152 644 63
152 644 116
152 645 58
152 645 59
152 645 60
152 645 61
152 645 62
152 645 63
152 645 116
152 646 58
152 646 59
152 646 60
152 646 61
152 646 62
152 646 63
152 646 116
152 647 58
152 647 59
152 647 60
152 647 61
152 647 62
152 647 63
152 647 116
152 648 58
152 648 59
152 648 60
152 648 61
152 648 62
152 648 63
152 648 116
152 649 58
152 649 59
152 649 60
152 649 61
152 649 62
152 649 63
152 649 116
152 650 60
152 650 61
152 650 62
152 650 63
152 650 116
152 651 58
152 651 59
152 651 61
152 651 116
152 652 57
152 652 58
152 652 59
152 652 62
152 652 116
152 653 58
152 653 62
152 653 63
152 653 116
152 654 58
152 654 62
152 654 64
152 654 116
152 655 58
152 655 63
152 655 64
152 655 116
152 656 58
152 656 63
152 656 64
152 656 116
152 657 64
152 657 116
152 658 64
152 658 65
152 658 116
152 659 64
152 659 65
152 659 116
152 660 64
152 660 65
152 660 116
152 661 65
152 661 66
152 661 117
152 662 65
152 662 66
152 662 117
152 663 65
152 663 66
152 663 117
152 664 66
152 664 118
152 665 66
152 665 67
152 665 118
152 666 66
152 666 67
152 666 119
152 667 66
152 667 67
152 667 119
152 668 67
152 668 68
152 668 119
152 669 67
152 669 68
152 669 120
152 670 68
152 670 120
152 671 68
152 671 69
152 671 120
152 672 68
152 672 69
152 672 121
152 673 68
152 673 70
152 673 121
152 674 69
152 674 121
152 675 69
152 675 70
152 675 121
152 676 69
152 676 70
152 676 122
152 677 70
152 677 122
152 678 70
152 678 71
152 678 122
152 679 70
152 679 71
152 679 123
152 680 70
152 680 72
152 680 123
152 681 71
152 681 72
152 681 123
152 682 71
152 682 73
152 682 124
152 683 72
152 683 74
152 683 124
152 684 73
152 684 74
152 684 124
152 685 73
152 685 75
152 685 125
152 686 74
152 686 75
152 686 125
152 687 75
152 687 125
152 688 75
152 688 76
152 688 126
152 689 75
152 689 76
152 689 126
152 690 76
152 690 77
152 690 127
152 691 76
152 691 78
152 691 127
152 692 77
152 692 78
152 692 128
152 693 77
152 693 79
152 693 128
152 694 78
152 694 80
152 694 129
152 695 79
152 695 80
152 695 129
152 695 140
152 696 80
152 696 81
152 696 130
152 696 140
152 696 155
152 696 156
152 696 157
152 697 80
152 697 82
152 697 130
152 697 155
152 697 156
152 697 157
152 698 81
152 698 83
152 698 130
152 698 141
152 698 147
152 698 148
152 698 149
152 698 150
152 698 151
152 698 152
152 698 153
152 698 154
152 698 155
152 698 156
152 698 157
152 698 158
152 699 82
152 699 83
152 699 131
152 699 141
152 699 146
152 699 147
152 699 148
152 699 149
152 699 150
152 699 151
152 699 152
152 699 153
152 699 154
152 699 155
152 699 156
152 699 157
152 699 158
152 700 83
152 700 84
152 700 131
152 700 141
152 700 145
152 700 146
152 700 147
152 700 148
152 700 149
152 700 150
152 700 151
152 700 158
152 700 159
152 700 160
152 700 161
152 700 162
152 701 83
152 701 85
152 701 131
152 701 141
152 701 145
152 701 146
152 701 147
152 701 148
152 701 161
152 701 162
152 701 163
152 701 164
152 701 165
152 701 166
152 702 84
152 702 85
152 702 132
152 702 141
152 702 145
152 702 146
152 702 147
152 702 164
152 702 165
152 702 166
152 702 167
152 702 168
152 702 169
152 703 85
152 703 86
152 703 132
152 703 141
152 703 144
152 703 145
152 703 146
152 703 147
152 703 165
152 703 166
152 703 167
152 703 168
152 703 169
152 703 170
152 704 85
152 704 87
152 704 133
152 704 141
152 704 144
152 704 145
152 704 146
152 704 165
152 704 166
152 704 167
152 704 168
152 704 169
152 704 170
152 705 86
152 705 87
152 705 133
152 705 139
152 705 140
152 705 141
152 705 144
152 705 145
152 705 146
152 705 167
152 705 168
152 705 169
152 705 170
152 705 171
152 706 87
152 706 88
152 706 133
152 706 139
152 706 140
152 706 141
152 706 144
152 706 145
152 706 146
152 706 167
152 706 168
152 706 169
152 706 170
152 706 171
152 707 87
152 707 88
152 707 134
152 707 139
152 707 140
152 707 144
152 707 145
152 707 146
152 707 168
152 707 169
152 707 170
152 707 171
152 707 172
152 707 173
152 708 88
152 708 89
152 708 133
152 708 134
152 708 135
152 708 138
152 708 139
152 708 140
152 708 144
152 708 145
152 708 146
152 708 169
152 708 170
152 708 171
152 708 172
152 708 173
152 709 88
152 709 89
152 709 135
152 709 138
152 709 139
152 709 140
152 709 144
152 709 145
152 709 146
152 709 171
152 709 172
152 709 173
152 709 174
152 709 175
152 710 89
152 710 90
152 710 135
152 710 139
152 710 140
152 710 144
152 710 145
152 710 146
152 710 171
152 710 172
152 710 173
152 710 174
152 710 175
152 711 89
152 711 90
152 711 135
152 711 138
152 711 139
152 711 140
152 711 141
152 711 144
152 711 145
152 711 146
152 711 172
152 711 173
152 711 174
152 711 175
152 711 176
152 712 90
152 712 91
152 712 135
152 712 136
152 712 139
152 712 140
152 712 141
152 712 144
152 712 145
152 712 146
152 712 172
152 712 173
152 712 174
152 712 175
152 712 176
152 712 177
152 713 90
152 713 91
152 713 135
152 713 139
152 713 140
152 713 141
152 713 144
152 713 145
152 713 146
152 713 174
152 713 175
152 713 176
152 713 177
152 713 178
152 714 91
152 714 92
152 714 136
152 714 139
152 714 140
152 714 141
152 714 144
152 714 145
152 714 146
152 714 147
152 714 174
152 714 175
152 714 176
152 714 177
152 714 178
152 714 179
152 715 91
152 715 92
152 715 136
152 715 139
152 715 140
152 715 142
152 715 143
152 715 144
152 715 145
152 715 146
152 715 147
152 715 174
152 715 175
152 715 176
152 715 177
152 715 178
152 715 179
152 715 180
152 715 181
152 716 92
152 716 93
152 716 136
152 716 139
152 716 140
152 716 145
152 716 146
152 716 147
152 716 148
152 716 174
152 716 175
152 716 176
152 716 177
152 716 178
152 716 179
152 716 180
152 716 181
152 717 92
152 717 93
152 717 137
152 717 139
152 717 140
152 717 145
152 717 146
152 717 147
152 717 148
152 717 174
152 717 175
152 717 176
152 717 177
152 717 178
152 717 179
152 717 180
152 717 181
152 717 182
152 717 183
152 717 186
152 717 187
152 717 188
152 717 189
152 717 190
152 717 191
152 718 93
152 718 94
152 718 137
152 718 139
152 718 140
152 718 146
152 718 147
152 718 148
152 718 174
152 718 175
152 718 176
152 718 177
152 718 178
152 718 179
152 718 180
152 718 181
152 718 182
152 718 183
152 718 184
152 718 185
152 718 186
152 718 187
152 718 188
152 718 190
152 718 191
152 718 192
152 719 93
152 719 94
152 719 136
152 719 137
152 719 138
152 719 146
152 719 147
152 719 148
152 719 174
152 719 175
152 719 176
152 719 177
152 719 178
152 719 179
152 719 180
152 719 181
152 719 182
152 719 183
152 719 184
152 719 185
152 719 186
152 719 187
152 719 192
152 719 193
152 720 94
152 720 137
152 720 175
152 720 176
152 720 177
152 720 178
152 720 179
152 720 180
152 720 181
152 720 182
152 720 183
152 720 184
152 720 185
152 720 193
152 721 94
152 721 95
152 721 136
152 721 175
152 721 176
152 721 177
152 721 178
152 721 179
152 721 180
152 721 181
152 721 182
152 721 183
152 721 184
152 721 185
152 721 193
152 722 94
152 722 95
152 722 179
152 722 180
152 722 181
152 722 182
152 722 183
152 722 184
152 722 193
152 722 194
152 723 95
152 723 181
152 723 183
152 723 184
152 723 193
152 723 194
152 724 95
152 724 96
152 724 182
152 724 193
152 724 194
152 725 95
152 725 96
152 725 193
152 726 96
152 726 193
152 727 96
152 727 97
152 727 193
152 728 97
152 728 192
152 728 193
152 729 97
152 729 193
152 730 97
152 730 192
152 730 193
152 731 97
152 731 98
152 731 192
152 731 193
152 732 97
152 732 98
152 732 192
152 732 193
152 733 98
152 733 192
152 733 193
152 734 98
152 734 191
152 734 192
152 735 98
152 735 191
152 735 192
152 736 97
152 736 98
152 736 191
152 736 192
152 737 97
152 737 98
152 737 191
152 737 192
152 738 97
152 738 98
152 738 190
152 738 191
152 738 192
152 739 97
152 739 98
152 739 190
152 739 191
152 740 97
152 740 190
152 740 191
152 741 97
152 741 190
152 741 191
152 742 97
152 742 190
152 742 191
152 743 97
152 743 190
152 743 191
152 744 97
152 744 190
152 744 191
152 745 97
152 745 191
152 746 96
152 746 97
152 746 190
152 746 191
152 747 96
152 747 97
152 747 189
152 747 190
152 747 191
152 748 96
152 748 188
152 748 189
152 748 190
152 748 191
152 749 96
152 749 188
152 749 189
152 749 190
152 749 191
152 750 95
152 750 96
152 750 187
152 750 188
152 750 189
152 750 190
152 750 191
152 751 95
152 751 96
152 751 186
152 751 187
152 751 188
152 751 189
152 751 190
152 751 191
152 752 95
152 752 186
152 752 187
152 752 188
152 752 189
152 752 190
152 752 191
152 753 95
152 753 187
152 753 188
152 753 189
152 753 190
152 753 191
152 754 94
152 754 95
152 754 187
152 754 188
152 754 189
152 754 190
152 754 191
152 755 94
152 755 95
152 755 187
152 755 188
152 755 189
152 755 190
152 755 191
152 756 94
152 756 188
152 756 189
152 756 190
152 756 191
152 757 94
152 757 188
152 757 189
152 757 190
152 757 191
152 758 94
152 758 188
152 758 189
152 758 190
152 759 93
152 759 94
152 759 188
152 759 189
152 759 190
152 760 93
152 760 94
152 760 187
152 760 188
152 760 189
152 761 93
152 761 187
152 761 188
152 761 189
152 762 93
152 762 187
152 762 188
152 762 189
152 763 93
152 763 187
152 763 188
152 764 92
152 764 93
152 764 186
152 764 187
152 764 188
152 765 92
152 765 93
152 765 185
152 765 186
152 765 187
152 766 92
152 766 184
152 766 186
152 766 187
152 767 92
152 767 183
152 767 185
152 767 186
152 768 92
152 768 183
152 768 185
152 768 186
152 769 92
152 769 183
152 769 185
152 770 92
152 770 182
152 771 92
152 771 182
152 772 92
152 772 182
152 773 92
152 773 182
152 774 92
152 774 182
152 775 92
152 775 182
152 776 92
152 776 181
152 777 92
152 777 180
152 778 92
152 778 179
152 779 92
152 779 178
152 780 91
152 780 92
152 780 178
152 781 91
152 781 177
152 782 91
152 782 176
152 783 91
152 783 175
152 784 92
152 784 175
152 785 92
152 785 174
152 786 92
152 786 174
152 787 93
152 787 173
152 788 93
152 788 173
152 789 93
152 789 173
152 790 93
152 790 173
152 791 93
152 791 172
152 792 94
152 792 172
152 793 94
152 793 172
152 794 94
152 794 171
152 795 94
152 795 171
152 796 94
152 796 170
152 797 94
152 797 170
152 798 94
152 798 169
152 799 95
152 799 168
152 800 95
152 800 168
152 801 95
152 801 167
152 802 95
152 802 166
152 803 95
152 803 166
152 804 95
152 804 165
152 805 95
152 805 164
152 806 96
152 806 164
152 807 96
152 807 163
152 808 96
152 808 162
152 809 97
152 809 161
152 810 97
152 810 98
152 810 161
152 811 98
152 811 160
152 812 98
152 812 99
152 812 160
152 813 99
152 813 159
152 814 99
152 814 100
152 814 159
152 815 100
152 815 101
152 815 159
152 816 100
152 816 101
152 816 158
152 817 101
152 817 102
152 817 158
152 818 101
152 818 102
152 818 158
152 819 102
152 819 103
152 819 157
152 820 103
152 820 104
152 820 156
152 820 157
152 821 104
152 821 105
152 821 156
152 822 105
152 822 106
152 822 155
152 822 156
152 823 106
152 823 154
152 823 155
152 824 106
152 824 107
152 824 154
152 825 107
152 825 108
152 825 153
152 825 154
152 826 108
152 826 109
152 826 152
152 826 153
152 827 109
152 827 110
152 827 151
152 827 152
152 828 110
152 828 150
152 828 151
152 829 110
152 829 111
152 829 149
152 829 150
152 830 111
152 830 112
152 830 148
152 830 149
152 831 112
152 831 113
152 831 114
152 831 147
152 831 148
152 832 115
152 832 116
152 832 117
152 832 147
152 832 148
152 833 118
152 833 119
152 833 146
152 833 147
152 834 120
152 834 146
152 835 121
152 835 122
152 835 145
152 835 146
152 836 123
152 836 144
152 836 145
152 837 124
152 837 125
152 837 126
152 837 141
152 837 142
152 837 143
152 838 127
152 838 128
152 838 129
152 838 130
152 838 131
152 838 132
152 838 133
152 838 134
152 838 135
152 838 136
152 838 137
152 838 138
152 838 139
152 838 140
153 462 106
153 462 107
153 462 108
153 462 109
153 463 103
153 463 104
153 463 113
153 464 100
153 464 101
153 464 115
153 465 97
153 465 98
153 465 99
153 465 117
153 465 118
153 466 95
153 466 96
153 466 120
153 467 94
153 467 95
153 467 123
153 468 93
153 468 94
153 469 92
153 469 93
153 470 91
153 470 93
153 471 90
153 471 91
153 471 92
153 472 90
153 472 92
153 473 89
153 473 92
153 474 89
153 474 91
153 474 92
153 474 129
153 475 88
153 475 90
153 475 129
153 476 88
153 477 87
153 477 89
153 477 131
153 477 135
153 478 87
153 478 88
153 478 89
153 478 135
153 479 86
153 479 88
153 480 86
153 480 87
153 481 86
153 481 87
153 481 94
153 481 113
153 482 86
153 482 87
153 483 87
153 483 89
153 483 138
153 484 88
153 484 91
153 484 92
153 484 93
153 484 94
153 484 95
153 485 98
153 485 99
153 485 137
153 486 101
153 486 137
153 487 101
153 487 102
153 487 134
153 487 136
153 488 102
153 488 103
153 488 135
153 489 103
153 489 136
153 490 137
153 492 134
153 492 136
153 493 63
153 493 134
153 493 136
153 494 62
153 494 63
153 494 64
153 494 65
153 494 134
153 495 60
153 495 61
153 495 62
153 495 63
153 495 64
153 495 65
153 495 66
153 495 134
153 495 135
153 496 60
153 496 61
153 496 66
153 496 67
153 496 133
153 496 134
153 496 135
153 496 136
153 496 137
153 497 59
153 497 60
153 497 61
153 497 66
153 497 67
153 497 133
153 497 134
153 497 135
153 497 136
153 498 58
153 498 59
153 498 60
153 498 66
153 498 67
153 498 68
153 498 103
153 499 58
153 499 59
153 499 67
153 499 68
153 499 134
153 500 56
153 500 57
153 500 58
153 500 68
153 500 69
153 500 173
153 500 174
153 501 55
153 501 56
153 501 57
153 501 69
153 501 102
153 501 170
153 501 171
153 501 172
153 501 173
153 501 174
153 502 54
153 502 55
153 502 56
153 502 69
153 502 70
153 502 101
153 502 104
153 502 168
153 502 169
153 502 170
153 502 171
153 502 172
153 502 173
153 502 174
153 503 54
153 503 55
153 503 56
153 503 70
153 503 101
153 503 104
153 503 129
153 503 130
153 503 167
153 503 168
153 503 169
153 503 170
153 503 171
153 503 172
153 503 173
153 503 174
153 503 175
153 503 176
153 504 54
153 504 55
153 504 70
153 504 103
153 504 104
153 504 128
153 504 129
153 504 165
153 504 166
153 504 167
153 504 168
153 504 169
153 504 170
153 504 171
153 504 172
153 504 173
153 504 174
153 504 175
153 504 176
153 505 53
153 505 54
153 505 70
153 505 71
153 505 100
153 505 103
153 505 104
153 505 128
153 505 163
153 505 164
153 505 165
153 505 166
153 505 167
153 505 171
153 505 173
153 505 174
153 505 175
153 505 176
153 505 177
153 506 53
153 506 71
153 506 100
153 506 103
153 506 127
153 506 128
153 506 162
153 506 163
153 506 164
153 506 165
153 506 174
153 506 175
153 506 176
153 506 177
153 506 178
153 507 53
153 507 54
153 507 55
153 507 71
153 507 100
153 507 103
153 507 128
153 507 160
153 507 161
153 507 162
153 507 163
153 507 164
153 507 165
153 507 175
153 507 176
153 507 177
153 507 178
153 508 53
153 508 54
153 508 71
153 508 100
153 508 103
153 508 128
153 508 159
153 508 160
153 508 161
153 508 162
153 508 163
153 508 164
153 508 176
153 508 177
153 508 178
153 508 179
153 509 53
153 509 54
153 509 71
153 509 72
153 509 100
153 509 103
153 509 128
153 509 158
153 509 159
153 509 160
153 509 161
153 509 162
153 509 163
153 509 176
153 509 177
153 509 178
153 509 179
153 509 180
153 509 184
153 509 185
153 509 186
153 509 187
153 510 53
153 510 71
153 510 72
153 510 100
153 510 103
153 510 128
153 510 158
153 510 159
153 510 160
153 510 161
153 510 178
153 510 179
153 510 180
153 510 181
153 510 182
153 510 183
153 510 184
153 510 186
153 510 187
153 510 188
153 511 52
153 511 53
153 511 72
153 511 103
153 511 128
153 511 157
153 511 158
153 511 159
153 511 178
153 511 179
153 511 180
153 511 187
153 511 188
153 512 52
153 512 53
153 512 54
153 512 72
153 512 103
153 512 128
153 512 156
153 512 157
153 512 158
153 512 159
153 512 188
153 513 52
153 513 53
153 513 54
153 513 72
153 513 73
153 513 103
153 513 127
153 513 156
153 513 157
153 513 158
153 514 52
153 514 53
153 514 72
153 514 73
153 514 103
153 514 127
153 514 155
153 514 156
153 514 157
153 514 158
153 514 189
153 515 52
153 515 53
153 515 73
153 515 100
153 515 103
153 515 127
153 515 128
153 515 155
153 515 156
153 515 157
153 515 189
153 516 52
153 516 53
153 516 73
153 516 100
153 516 127
153 516 129
153 516 154
153 516 155
153 516 156
153 516 157
153 516 189
153 517 52
153 517 53
153 517 73
153 517 93
153 517 100
153 517 127
153 517 129
153 517 130
153 517 131
153 517 132
153 517 143
153 517 144
153 517 153
153 517 154
153 517 155
153 517 156
153 518 52
153 518 53
153 518 73
153 518 93
153 518 100
153 518 127
153 518 131
153 518 132
153 518 133
153 518 143
153 518 144
153 518 145
153 518 146
153 518 147
153 518 148
153 518 149
153 518 153
153 518 154
153 518 155
153 518 156
153 518 190
153 519 52
153 519 53
153 519 73
153 519 74
153 519 94
153 519 99
153 519 132
153 519 133
153 519 134
153 519 142
153 519 143
153 519 144
153 519 145
153 519 146
153 519 147
153 519 148
153 519 149
153 519 150
153 519 151
153 519 152
153 519 153
153 519 154
153 519 155
153 519 156
153 520 52
153 520 53
153 520 73
153 520 74
153 520 94
153 520 95
153 520 99
153 520 133
153 520 134
153 520 135
153 520 141
153 520 142
153 520 143
153 520 144
153 520 145
153 520 146
153 520 147
153 520 148
153 520 149
153 520 150
153 520 151
153 520 152
153 520 153
153 520 154
153 520 155
153 521 52
153 521 53
153 521 73
153 521 74
153 521 94
153 521 95
153 521 96
153 521 97
153 521 98
153 521 99
153 521 133
153 521 134
153 521 135
153 521 136
153 521 140
153 521 141
153 521 142
153 521 143
153 521 144
153 521 145
153 521 146
153 521 147
153 521 148
153 521 149
153 521 150
153 521 151
153 521 152
153 521 153
153 521 154
153 521 155
153 521 191
153 522 52
153 522 74
153 522 75
153 522 95
153 522 96
153 522 97
153 522 98
153 522 99
153 522 134
153 522 135
153 522 136
153 522 137
153 522 138
153 522 139
153 522 140
153 522 141
153 522 142
153 522 144
153 522 145
153 522 146
153 522 147
153 522 148
153 522 149
153 522 150
153 522 151
153 522 152
153 522 153
153 522 154
153 522 191
153 523 52
153 523 74
153 523 75
153 523 96
153 523 97
153 523 98
153 523 99
153 523 134
153 523 135
153 523 136
153 523 137
153 523 138
153 523 139
153 523 140
153 523 141
153 523 148
153 523 149
153 523 150
153 523 151
153 523 152
153 523 153
153 524 51
153 524 52
153 524 75
153 524 97
153 524 98
153 524 134
153 524 135
153 524 136
153 524 137
153 524 138
153 524 139
153 525 51
153 525 76
153 525 77
153 525 93
153 525 98
153 525 99
153 525 135
153 525 136
153 525 137
153 525 138
153 525 139
153 526 50
153 526 76
153 526 77
153 526 93
153 526 98
153 526 99
153 526 135
153 526 136
153 526 137
153 526 138
153 527 50
153 527 77
153 527 78
153 527 92
153 527 134
153 527 135
153 527 136
153 527 137
153 528 50
153 528 79
153 528 80
153 528 81
153 528 82
153 528 91
153 528 92
153 528 127
153 528 135
153 528 136
153 529 48
153 529 49
153 529 50
153 529 51
153 529 79
153 529 80
153 529 81
153 529 82
153 529 83
153 529 84
153 529 85
153 529 86
153 529 87
153 529 88
153 529 89
153 529 90
153 529 91
153 529 127
153 529 135
153 529 136
153 530 48
153 530 49
153 530 50
153 530 51
153 530 80
153 530 81
153 530 82
153 530 83
153 530 84
153 530 85
153 530 86
153 530 87
153 530 88
153 530 89
153 530 90
153 530 127
153 530 135
153 530 136
153 531 48
153 531 49
153 531 50
153 531 51
153 531 82
153 531 83
153 531 84
153 531 85
153 531 86
153 531 87
153 531 88
153 531 89
153 531 90
153 531 127
153 532 48
153 532 49
153 532 50
153 532 51
153 532 86
153 532 87
153 532 88
153 532 89
153 532 126
153 532 127
153 532 191
153 533 48
153 533 49
153 533 50
153 533 51
153 533 126
153 533 127
153 533 191
153 534 48
153 534 49
153 534 50
153 534 51
153 534 125
153 534 191
153 535 48
153 535 49
153 535 50
153 535 51
153 535 191
153 536 48
153 536 49
153 536 50
153 536 51
153 536 191
153 537 48
153 537 49
153 537 50
153 537 51
153 537 191
153 538 48
153 538 49
153 538 50
153 538 51
153 538 126
153 538 127
153 538 128
153 538 129
153 538 130
153 538 131
153 538 132
153 538 133
153 538 134
153 538 135
153 538 136
153 538 191
153 539 48
153 539 49
153 539 50
153 539 51
153 539 126
153 539 127
153 539 128
153 539 129
153 539 130
153 539 131
153 539 132
153 539 133
153 539 134
153 539 135
153 539 136
153 539 137
153 539 138
153 539 191
153 540 48
153 540 49
153 540 50
153 540 51
153 540 126
153 540 127
153 540 128
153 540 129
153 540 130
153 540 131
153 540 132
153 540 133
153 540 134
153 540 135
153 540 136
153 540 137
153 540 138
153 540 191
153 541 48
153 541 49
153 541 50
153 541 51
153 541 124
153 541 125
153 541 126
153 541 127
153 541 128
153 541 129
153 541 130
153 541 131
153 541 132
153 541 133
153 541 134
153 541 135
153 541 136
153 541 137
153 541 138
153 541 139
153 541 191
153 542 48
153 542 49
153 542 50
153 542 51
153 542 137
153 542 138
153 542 139
153 542 191
153 543 48
153 543 49
153 543 50
153 543 51
153 543 138
153 543 139
153 543 191
153 543 192
153 544 48
153 544 49
153 544 50
153 544 51
153 544 139
153 544 191
153 544 192
153 545 48
153 545 49
153 545 50
153 545 51
153 545 125
153 545 139
153 545 191
153 545 192
153 546 48
153 546 49
153 546 50
153 546 51
153 546 122
153 546 139
153 546 140
153 546 191
153 546 192
153 547 48
153 547 49
153 547 50
153 547 51
153 547 122
153 547 139
153 547 140
153 547 191
153 547 192
153 548 48
153 548 49
153 548 50
153 548 51
153 548 121
153 548 139
153 548 140
153 548 191
153 548 192
153 549 48
153 549 49
153 549 50
153 549 51
153 549 121
153 549 139
153 549 140
153 549 191
153 549 192
153 550 49
153 550 50
153 550 51
153 550 121
153 550 125
153 550 139
153 550 140
153 550 141
153 550 191
153 550 192
153 551 49
153 551 50
153 551 51
153 551 139
153 551 140
153 551 141
153 551 191
153 551 192
153 552 49
153 552 50
153 552 51
153 552 120
153 552 121
153 552 139
153 552 140
153 552 141
153 552 191
153 553 45
153 553 49
153 553 50
153 553 51
153 553 120
153 553 139
153 553 140
153 553 141
153 553 191
153 554 44
153 554 49
153 554 51
153 554 119
153 554 125
153 554 139
153 554 140
153 554 141
153 554 142
153 554 190
153 555 51
153 555 52
153 555 119
153 555 125
153 555 140
153 555 141
153 555 142
153 555 143
153 556 51
153 556 52
153 556 118
153 556 125
153 556 140
153 556 141
153 556 142
153 556 143
153 557 52
153 557 118
153 557 125
153 557 139
153 557 140
153 557 141
153 557 142
153 557 143
153 557 144
153 557 145
153 557 188
153 558 52
153 558 53
153 558 118
153 558 125
153 558 139
153 558 140
153 558 141
153 558 142
153 558 143
153 558 144
153 558 145
153 558 186
153 558 187
153 559 52
153 559 53
153 559 117
153 559 124
153 559 125
153 559 138
153 559 139
153 559 140
153 559 141
153 559 142
153 559 143
153 559 144
153 559 145
153 559 184
153 559 185
153 560 52
153 560 53
153 560 117
153 560 124
153 560 137
153 560 138
153 560 139
153 560 140
153 560 141
153 560 142
153 560 143
153 560 182
153 561 52
153 561 53
153 561 116
153 561 117
153 561 124
153 561 136
153 561 137
153 561 138
153 561 139
153 561 140
153 561 141
153 561 142
153 562 52
153 562 53
153 562 116
153 562 117
153 562 137
153 562 138
153 562 139
153 562 140
153 562 141
153 562 180
153 562 181
153 563 52
153 563 53
153 563 115
153 563 117
153 563 137
153 563 138
153 563 139
153 563 140
153 563 180
153 564 52
153 564 53
153 564 115
153 564 117
153 564 136
153 564 137
153 564 138
153 564 139
153 564 140
153 564 179
153 565 52
153 565 53
153 565 115
153 565 117
153 565 136
153 565 137
153 565 138
153 565 139
153 565 178
153 566 52
153 566 53
153 566 116
153 566 118
153 566 135
153 566 136
153 566 137
153 566 138
153 566 177
153 567 52
153 567 53
153 567 116
153 567 118
153 567 134
153 567 135
153 567 136
153 567 137
153 567 176
153 568 52
153 568 53
153 568 117
153 568 118
153 568 134
153 568 135
153 568 136
153 568 175
153 569 52
153 569 53
153 569 117
153 569 119
153 569 132
153 569 133
153 569 134
153 569 135
153 569 174
153 569 175
153 570 52
153 570 53
153 570 118
153 570 119
153 570 124
153 570 125
153 570 130
153 570 131
153 570 132
153 570 133
153 570 134
153 570 173
153 570 174
153 571 52
153 571 53
153 571 118
153 571 120
153 571 125
153 571 127
153 571 128
153 571 129
153 571 130
153 571 131
153 571 132
153 571 133
153 571 172
153 571 173
153 572 52
153 572 53
153 572 119
153 572 120
153 572 126
153 572 127
153 572 128
153 572 129
153 572 130
153 572 131
153 572 132
153 572 171
153 572 172
153 573 52
153 573 53
153 573 119
153 573 120
153 573 126
153 573 127
153 573 128
153 573 129
153 573 170
153 573 171
153 574 52
153 574 53
153 574 119
153 574 121
153 574 126
153 574 127
153 574 169
153 574 170
153 575 52
153 575 53
153 575 120
153 575 121
153 575 126
153 575 167
153 575 168
153 575 169
153 576 52
153 576 53
153 576 120
153 576 121
153 576 126
153 576 127
153 576 128
153 576 166
153 576 167
153 576 168
153 577 52
153 577 53
153 577 120
153 577 121
153 577 126
153 577 127
153 577 128
153 577 129
153 577 130
153 577 164
153 577 165
153 577 166
153 578 52
153 578 53
153 578 120
153 578 122
153 578 126
153 578 127
153 578 128
153 578 129
153 578 130
153 578 131
153 578 132
153 578 133
153 578 134
153 578 135
153 578 136
153 578 137
153 578 138
153 578 162
153 578 163
153 578 164
153 578 165
153 579 52
153 579 53
153 579 121
153 579 123
153 579 125
153 579 131
153 579 132
153 579 133
153 579 134
153 579 135
153 579 136
153 579 137
153 579 138
153 579 139
153 579 140
153 579 141
153 579 142
153 579 143
153 579 144
153 579 145
153 579 146
153 579 147
153 579 148
153 579 149
153 579 150
153 579 151
153 579 152
153 579 153
153 579 160
153 579 161
153 579 162
153 580 52
153 580 53
153 580 122
153 580 123
153 580 125
153 580 143
153 580 144
153 580 145
153 580 146
153 580 147
153 580 148
153 580 149
153 580 150
153 580 151
153 580 152
153 580 153
153 580 154
153 580 155
153 580 156
153 580 158
153 580 159
153 580 160
153 580 161
153 581 52
153 581 53
153 581 121
153 581 122
153 581 153
153 581 154
153 581 155
153 581 156
153 581 157
153 581 158
153 581 159
153 581 168
153 582 52
153 582 53
153 582 120
153 582 121
153 582 124
153 582 167
153 582 168
153 583 52
153 583 53
153 583 119
153 583 120
153 583 165
153 583 166
153 583 167
153 583 168
153 584 52
153 584 53
153 584 118
153 584 119
153 584 164
153 584 165
153 584 166
153 584 167
153 585 52
153 585 53
153 585 117
153 585 119
153 585 164
153 585 165
153 585 166
153 586 52
153 586 53
153 586 116
153 586 118
153 587 52
153 587 53
153 587 115
153 587 117
153 588 52
153 588 53
153 588 54
153 588 115
153 588 116
153 589 53
153 589 54
153 589 114
153 589 116
153 590 53
153 590 54
153 590 114
153 590 115
153 591 53
153 591 54
153 591 55
153 591 113
153 591 115
153 592 54
153 592 55
153 592 113
153 592 114
153 593 54
153 593 55
153 593 113
153 593 114
153 594 54
153 594 55
153 594 113
153 594 114
153 595 54
153 595 55
153 595 113
153 595 114
153 596 54
153 596 55
153 596 113
153 596 114
153 597 54
153 597 55
153 597 114
153 597 115
153 598 54
153 598 55
153 598 114
153 598 115
153 599 54
153 599 55
153 599 114
153 599 115
153 600 54
153 600 55
153 600 114
153 600 115
153 601 54
153 601 55
153 601 114
153 601 115
153 602 54
153 602 55
153 602 114
153 602 115
153 603 54
153 603 55
153 603 115
153 604 54
153 604 55
153 604 115
153 605 54
153 605 55
153 605 115
153 606 54
153 606 55
153 606 115
153 606 116
153 607 54
153 607 55
153 607 115
153 607 116
153 608 54
153 608 55
153 608 115
153 608 116
153 609 54
153 609 55
153 609 116
153 609 117
153 610 54
153 610 55
153 610 117
153 611 54
153 611 55
153 611 117
153 611 118
153 612 54
153 612 55
153 612 117
153 612 118
153 613 54
153 613 55
153 613 118
153 613 119
153 614 54
153 614 55
153 614 118
153 614 119
153 615 54
153 615 55
153 615 118
153 615 119
153 616 54
153 616 55
153 616 118
153 616 119
153 617 54
153 617 55
153 617 118
153 617 119
153 618 54
153 618 55
153 618 118
153 618 119
153 619 54
153 619 55
153 619 56
153 619 118
153 619 119
153 620 54
153 620 56
153 620 118
153 620 119
153 621 54
153 621 55
153 621 56
153 621 57
153 621 118
153 621 119
153 622 55
153 622 56
153 622 57
153 622 118
153 622 119
153 623 55
153 623 56
153 623 57
153 623 58
153 623 117
153 623 118
153 624 55
153 624 56
153 624 57
153 624 58
153 624 59
153 624 117
153 624 118
153 625 55
153 625 56
153 625 57
153 625 58
153 625 59
153 625 117
153 625 118
153 626 55
153 626 56
153 626 57
153 626 58
153 626 59
153 626 117
153 627 55
153 627 56
153 627 57
153 627 58
153 627 59
153 627 117
153 628 55
153 628 56
153 628 57
153 628 58
153 628 59
153 628 116
153 629 55
153 629 56
153 629 57
153 629 58
153 629 59
153 629 116
153 630 55
153 630 56
153 630 57
153 630 58
153 630 59
153 630 116
153 631 55
153 631 56
153 631 57
153 631 58
153 631 59
153 631 116
153 632 55
153 632 56
153 632 57
153 632 58
153 632 59
153 632 116
153 633 55
153 633 56
153 633 57
153 633 58
153 633 59
153 633 116
153 634 55
153 634 56
153 634 57
153 634 58
153 634 59
153 634 116
153 635 55
153 635 56
153 635 57
153 635 58
153 635 59
153 635 60
153 635 116
153 636 55
153 636 56
153 636 57
153 636 58
153 636 59
153 636 60
153 636 116
153 637 55
153 637 56
153 637 57
153 637 58
153 637 59
153 637 60
153 637 116
153 638 55
153 638 56
153 638 57
153 638 58
153 638 59
153 638 60
153 638 61
153 638 116
153 639 55
153 639 56
153 639 57
153 639 58
153 639 59
153 639 60
153 639 61
153 639 116
153 640 55
153 640 56
153 640 57
153 640 58
153 640 59
153 640 60
153 640 61
153 640 116
153 641 55
153 641 56
153 641 57
153 641 58
153 641 59
153 641 60
153 641 61
153 641 116
153 642 55
153 642 56
153 642 57
153 642 58
153 642 59
153 642 60
153 642 61
153 642 116
153 643 55
153 643 56
153 643 57
153 643 58
153 643 59
153 643 60
153 643 61
153 643 116
153 644 55
153 644 56
153 644 57
153 644 58
153 644 59
153 644 60
153 644 61
153 644 116
153 645 55
153 645 56
153 645 57
153 645 58
153 645 59
153 645 60
153 645 61
153 645 116
153 646 55
153 646 56
153 646 57
153 646 58
153 646 59
153 646 60
153 646 61
153 646 62
153 646 115
153 647 55
153 647 56
153 647 57
153 647 58
153 647 59
153 647 60
153 647 61
153 647 62
153 647 115
153 648 55
153 648 56
153 648 57
153 648 58
153 648 59
153 648 60
153 648 61
153 648 62
153 648 116
153 649 55
153 649 56
153 649 57
153 649 58
153 649 59
153 649 60
153 649 61
153 649 115
153 650 55
153 650 56
153 650 57
153 650 58
153 650 59
153 650 60
153 650 61
153 650 115
153 651 56
153 651 57
153 651 58
153 651 60
153 651 61
153 651 115
153 652 56
153 652 58
153 652 60
153 652 61
153 652 115
153 653 56
153 653 57
153 653 60
153 653 61
153 653 115
153 654 57
153 654 61
153 654 62
153 654 115
153 655 57
153 655 61
153 655 62
153 655 115
153 656 57
153 656 58
153 656 61
153 656 62
153 656 115
153 657 62
153 657 63
153 657 115
153 658 62
153 658 63
153 658 115
153 659 62
153 659 63
153 659 115
153 660 63
153 660 116
153 661 63
153 661 64
153 661 116
153 662 63
153 662 64
153 662 116
153 663 63
153 663 65
153 663 117
153 664 64
153 664 65
153 664 117
153 665 64
153 665 65
153 665 117
153 666 64
153 666 65
153 666 118
153 667 65
153 667 66
153 667 118
153 668 65
153 668 66
153 668 119
153 669 65
153 669 66
153 669 119
153 670 65
153 670 67
153 670 119
153 671 66
153 671 67
153 671 120
153 672 66
153 672 67
153 672 120
153 673 66
153 673 68
153 673 120
153 674 67
