ply
format ascii 1.0
comment Created by Open3D
element vertex 4135
property double x
property double y
property double z
end_header
149 538 172
149 538 173
149 538 174
149 538 175
149 538 176
149 538 177
149 538 178
149 538 179
149 538 180
149 538 181
149 538 182
149 538 183
149 538 184
149 538 185
149 538 186
149 539 56
149 539 57
149 539 58
149 539 72
149 539 73
149 539 74
149 539 75
149 539 76
149 539 77
149 539 78
149 539 79
149 539 80
149 539 81
149 539 99
149 539 100
149 539 124
149 539 158
149 539 159
149 539 160
149 539 161
149 539 162
149 539 163
149 539 164
149 539 165
149 539 166
149 539 167
149 539 168
149 539 169
149 539 170
149 539 171
149 539 172
149 539 173
149 539 174
149 539 175
149 539 176
149 539 177
149 539 178
149 539 179
149 539 180
149 539 181
149 539 182
149 539 183
149 539 184
149 539 185
149 539 186
149 539 187
149 540 56
149 540 57
149 540 79
149 540 80
149 540 81
149 540 82
149 540 83
149 540 84
149 540 99
149 540 123
149 540 158
149 540 159
149 540 160
149 540 161
149 540 162
149 540 163
149 540 164
149 540 165
149 540 166
149 540 167
149 540 168
149 540 169
149 540 170
149 540 171
149 540 172
149 540 173
149 540 174
149 540 175
149 540 176
149 540 177
149 540 178
149 540 179
149 540 180
149 540 181
149 540 182
149 540 183
149 540 184
149 540 185
149 540 186
149 540 187
149 541 56
149 541 57
149 541 83
149 541 84
149 541 85
149 541 86
149 541 87
149 541 92
149 541 93
149 541 94
149 541 95
149 541 98
149 541 99
149 541 123
149 541 157
149 541 158
149 541 159
149 541 160
149 541 161
149 541 162
149 541 163
149 541 164
149 541 165
149 541 166
149 541 167
149 541 168
149 541 169
149 541 170
149 541 171
149 541 172
149 541 173
149 541 174
149 541 175
149 541 176
149 541 177
149 541 178
149 541 179
149 541 180
149 541 181
149 541 182
149 541 183
149 541 184
149 541 185
149 541 186
149 541 187
149 541 188
149 542 56
149 542 57
149 542 85
149 542 86
149 542 87
149 542 88
149 542 89
149 542 90
149 542 91
149 542 92
149 542 93
149 542 94
149 542 95
149 542 96
149 542 97
149 542 98
149 542 123
149 542 156
149 542 157
149 542 158
149 542 159
149 542 160
149 542 161
149 542 162
149 542 163
149 542 164
149 542 165
149 542 166
149 542 167
149 542 168
149 542 169
149 542 170
149 542 171
149 542 172
149 542 173
149 542 174
149 542 175
149 542 176
149 542 177
149 542 178
149 542 179
149 542 180
149 542 181
149 542 182
149 542 183
149 542 184
149 542 185
149 542 186
149 542 187
149 542 188
149 543 56
149 543 57
149 543 86
149 543 87
149 543 88
149 543 89
149 543 90
149 543 91
149 543 92
149 543 95
149 543 96
149 543 97
149 543 98
149 543 123
149 543 156
149 543 157
149 543 158
149 543 159
149 543 160
149 543 161
149 543 162
149 543 163
149 543 164
149 543 165
149 543 166
149 543 167
149 543 168
149 543 169
149 543 170
149 543 171
149 543 172
149 543 173
149 543 174
149 543 175
149 543 176
149 543 177
149 543 178
149 543 179
149 543 180
149 543 181
149 543 182
149 543 183
149 543 184
149 543 185
149 543 186
149 543 187
149 543 188
149 544 56
149 544 57
149 544 123
149 544 156
149 544 157
149 544 158
149 544 159
149 544 160
149 544 161
149 544 162
149 544 163
149 544 164
149 544 165
149 544 166
149 544 167
149 544 168
149 544 169
149 544 170
149 544 171
149 544 172
149 544 173
149 544 174
149 544 175
149 544 176
149 544 177
149 544 178
149 544 179
149 544 180
149 544 181
149 544 182
149 544 183
149 544 184
149 544 185
149 544 186
149 544 187
149 544 188
149 545 56
149 545 57
149 545 123
149 545 156
149 545 157
149 545 158
149 545 159
149 545 160
149 545 161
149 545 162
149 545 163
149 545 164
149 545 165
149 545 166
149 545 167
149 545 168
149 545 169
149 545 170
149 545 171
149 545 172
149 545 173
149 545 174
149 545 175
149 545 176
149 545 177
149 545 178
149 545 179
149 545 180
149 545 181
149 545 182
149 545 183
149 545 184
149 545 185
149 545 186
149 545 187
149 545 188
149 546 56
149 546 57
149 546 123
149 546 156
149 546 157
149 546 158
149 546 159
149 546 160
149 546 161
149 546 162
149 546 163
149 546 164
149 546 165
149 546 166
149 546 167
149 546 168
149 546 169
149 546 170
149 546 171
149 546 172
149 546 173
149 546 174
149 546 175
149 546 176
149 546 177
149 546 178
149 546 179
149 546 180
149 546 181
149 546 182
149 546 183
149 546 184
149 546 185
149 546 186
149 546 187
149 546 188
149 547 56
149 547 57
149 547 123
149 547 156
149 547 157
149 547 158
149 547 187
149 547 188
149 548 56
149 548 57
149 548 123
149 548 156
149 548 157
149 548 158
149 548 187
149 548 188
149 549 56
149 549 57
149 549 123
149 549 156
149 549 157
149 549 187
149 549 188
149 550 56
149 550 57
149 550 122
149 550 156
149 550 157
149 550 187
149 550 188
149 551 56
149 551 57
149 551 122
149 551 156
149 551 157
149 551 187
149 551 188
149 552 56
149 552 57
149 552 122
149 552 156
149 552 157
149 552 187
149 552 188
149 553 56
149 553 57
149 553 121
149 553 156
149 553 157
149 553 187
149 553 188
149 554 56
149 554 57
149 554 121
149 554 156
149 554 157
149 554 185
149 554 186
149 554 187
149 555 56
149 555 57
149 555 58
149 555 120
149 555 156
149 555 157
149 555 158
149 555 183
149 555 184
149 555 185
149 555 186
149 556 56
149 556 57
149 556 58
149 556 59
149 556 120
149 556 156
149 556 157
149 556 158
149 556 182
149 556 183
149 556 184
149 557 56
149 557 57
149 557 58
149 557 59
149 557 120
149 557 124
149 557 156
149 557 157
149 557 158
149 557 180
149 557 181
149 558 57
149 558 58
149 558 59
149 558 60
149 558 119
149 558 156
149 558 157
149 558 158
149 558 180
149 558 181
149 559 57
149 559 58
149 559 59
149 559 60
149 559 61
149 559 119
149 559 156
149 559 157
149 559 179
149 560 57
149 560 58
149 560 59
149 560 60
149 560 61
149 560 62
149 560 118
149 560 119
149 560 155
149 560 156
149 560 157
149 560 178
149 561 57
149 561 58
149 561 59
149 561 60
149 561 61
149 561 62
149 561 118
149 561 119
149 561 153
149 561 154
149 561 155
149 561 177
149 562 57
149 562 58
149 562 59
149 562 60
149 562 61
149 562 62
149 562 117
149 562 119
149 562 150
149 562 151
149 562 152
149 562 153
149 562 154
149 562 155
149 562 176
149 562 177
149 563 57
149 563 58
149 563 59
149 563 60
149 563 61
149 563 62
149 563 116
149 563 119
149 563 147
149 563 148
149 563 149
149 563 150
149 563 151
149 563 152
149 563 153
149 563 176
149 564 57
149 564 58
149 564 59
149 564 60
149 564 61
149 564 62
149 564 116
149 564 120
149 564 146
149 564 147
149 564 148
149 564 149
149 564 150
149 564 151
149 564 152
149 564 175
149 565 57
149 565 58
149 565 59
149 565 60
149 565 61
149 565 62
149 565 117
149 565 120
149 565 145
149 565 146
149 565 147
149 565 148
149 565 149
149 565 150
149 565 151
149 565 174
149 566 57
149 566 58
149 566 59
149 566 60
149 566 61
149 566 62
149 566 117
149 566 121
149 566 144
149 566 145
149 566 146
149 566 147
149 566 148
149 566 149
149 566 172
149 566 173
149 567 57
149 567 58
149 567 59
149 567 60
149 567 61
149 567 62
149 567 118
149 567 121
149 567 143
149 567 144
149 567 145
149 567 146
149 567 147
149 567 171
149 568 57
149 568 58
149 568 59
149 568 60
149 568 61
149 568 62
149 568 119
149 568 121
149 568 142
149 568 143
149 568 144
149 568 145
149 568 146
149 568 170
149 569 57
149 569 58
149 569 59
149 569 60
149 569 61
149 569 62
149 569 120
149 569 122
149 569 141
149 569 142
149 569 143
149 569 144
149 569 145
149 569 146
149 569 169
149 570 57
149 570 58
149 570 59
149 570 60
149 570 61
149 570 62
149 570 121
149 570 122
149 570 141
149 570 142
149 570 143
149 570 144
149 570 145
149 570 167
149 570 168
149 571 57
149 571 58
149 571 59
149 571 60
149 571 61
149 571 62
149 571 122
149 571 123
149 571 140
149 571 141
149 571 142
149 571 143
149 571 144
149 571 145
149 571 166
149 572 57
149 572 58
149 572 59
149 572 60
149 572 61
149 572 62
149 572 123
149 572 139
149 572 140
149 572 141
149 572 142
149 572 143
149 572 144
149 572 145
149 572 146
149 572 164
149 572 165
149 573 57
149 573 58
149 573 59
149 573 60
149 573 61
149 573 62
149 573 123
149 573 139
149 573 140
149 573 141
149 573 142
149 573 143
149 573 144
149 573 145
149 573 146
149 573 147
149 573 148
149 573 163
149 574 57
149 574 58
149 574 59
149 574 60
149 574 61
149 574 62
149 574 124
149 574 140
149 574 141
149 574 142
149 574 143
149 574 144
149 574 145
149 574 146
149 574 147
149 574 148
149 574 149
149 574 150
149 574 151
149 574 152
149 574 161
149 574 162
149 575 57
149 575 58
149 575 59
149 575 60
149 575 61
149 575 62
149 575 124
149 575 143
149 575 144
149 575 145
149 575 146
149 575 147
149 575 148
149 575 149
149 575 150
149 575 151
149 575 152
149 575 153
149 575 154
149 575 155
149 575 159
149 575 160
149 576 57
149 576 58
149 576 59
149 576 60
149 576 61
149 576 62
149 576 124
149 576 125
149 576 151
149 576 152
149 576 153
149 576 154
149 576 155
149 576 156
149 576 157
149 576 158
149 577 57
149 577 58
149 577 59
149 577 60
149 577 61
149 577 62
149 577 126
149 578 57
149 578 58
149 578 59
149 578 60
149 578 61
149 578 62
149 578 126
149 578 127
149 579 57
149 579 58
149 579 59
149 579 60
149 579 61
149 579 62
149 579 124
149 579 126
149 579 127
149 580 57
149 580 58
149 580 59
149 580 60
149 580 61
149 580 62
149 580 125
149 580 126
149 581 57
149 581 58
149 581 59
149 581 60
149 581 61
149 581 62
149 581 124
149 581 125
149 582 57
149 582 58
149 582 59
149 582 60
149 582 61
149 582 62
149 582 122
149 582 123
149 583 57
149 583 58
149 583 59
149 583 60
149 583 61
149 583 62
149 583 120
149 583 122
149 584 57
149 584 58
149 584 59
149 584 60
149 584 61
149 584 62
149 584 119
149 584 120
149 585 57
149 585 58
149 585 59
149 585 60
149 585 61
149 585 62
149 585 118
149 585 119
149 586 58
149 586 59
149 586 61
149 586 62
149 586 117
149 586 118
149 587 59
149 587 60
149 587 62
149 587 116
149 587 118
149 588 59
149 588 60
149 588 61
149 588 62
149 588 63
149 588 116
149 588 118
149 589 60
149 589 61
149 589 62
149 589 63
149 589 116
149 589 118
149 590 61
149 590 62
149 590 63
149 590 117
149 590 118
149 591 61
149 591 62
149 591 63
149 591 64
149 591 118
149 591 119
149 592 62
149 592 63
149 592 64
149 592 118
149 592 119
149 593 62
149 593 63
149 593 64
149 593 119
149 594 62
149 594 63
149 594 64
149 594 119
149 594 120
149 595 62
149 595 63
149 595 64
149 595 120
149 596 62
149 596 63
149 596 64
149 596 120
149 596 121
149 597 62
149 597 63
149 597 64
149 597 121
149 598 62
149 598 63
149 598 64
149 598 121
149 599 62
149 599 63
149 599 64
149 599 121
149 600 62
149 600 63
149 600 64
149 600 121
149 601 62
149 601 63
149 601 64
149 601 121
149 602 62
149 602 63
149 602 64
149 602 121
149 603 62
149 603 63
149 603 64
149 603 121
149 604 62
149 604 63
149 604 64
149 604 121
149 605 62
149 605 63
149 605 64
149 605 121
149 606 62
149 606 63
149 606 64
149 606 120
149 607 62
149 607 63
149 607 64
149 607 121
149 608 62
149 608 63
149 608 64
149 608 121
149 609 62
149 609 63
149 609 64
149 609 122
149 610 62
149 610 63
149 610 64
149 610 123
149 611 62
149 611 63
149 611 64
149 611 123
149 612 62
149 612 63
149 612 64
149 612 124
149 613 62
149 613 63
149 613 64
149 613 125
149 614 62
149 614 63
149 614 64
149 614 125
149 615 62
149 615 63
149 615 64
149 615 125
149 616 62
149 616 63
149 616 64
149 616 125
149 617 62
149 617 63
149 617 64
149 617 125
149 618 62
149 618 63
149 618 64
149 618 125
149 619 63
149 619 64
149 619 125
149 620 63
149 620 64
149 620 70
149 620 71
149 620 125
149 621 63
149 621 64
149 621 70
149 621 71
149 621 72
149 621 73
149 621 125
149 622 63
149 622 64
149 622 69
149 622 70
149 622 71
149 622 72
149 622 73
149 622 74
149 622 125
149 623 63
149 623 64
149 623 69
149 623 70
149 623 74
149 623 75
149 623 124
149 624 63
149 624 64
149 624 69
149 624 70
149 624 75
149 624 76
149 624 124
149 625 63
149 625 64
149 625 69
149 625 70
149 625 75
149 625 76
149 625 123
149 625 124
149 626 63
149 626 64
149 626 69
149 626 70
149 626 75
149 626 76
149 626 123
149 627 63
149 627 64
149 627 65
149 627 69
149 627 70
149 627 75
149 627 123
149 628 64
149 628 65
149 628 69
149 628 70
149 628 74
149 628 75
149 628 122
149 629 64
149 629 65
149 629 68
149 629 69
149 629 70
149 629 74
149 629 122
149 630 64
149 630 65
149 630 66
149 630 68
149 630 69
149 630 70
149 630 74
149 630 122
149 631 64
149 631 65
149 631 66
149 631 68
149 631 69
149 631 74
149 631 122
149 632 64
149 632 65
149 632 66
149 632 68
149 632 69
149 632 73
149 632 74
149 632 121
149 633 64
149 633 65
149 633 66
149 633 67
149 633 68
149 633 69
149 633 73
149 633 121
149 634 65
149 634 66
149 634 67
149 634 68
149 634 69
149 634 72
149 634 73
149 634 121
149 635 65
149 635 66
149 635 67
149 635 68
149 635 69
149 635 72
149 635 73
149 635 121
149 636 65
149 636 66
149 636 67
149 636 68
149 636 69
149 636 72
149 636 73
149 636 121
149 637 65
149 637 66
149 637 67
149 637 68
149 637 69
149 637 72
149 637 73
149 637 120
149 638 66
149 638 67
149 638 68
149 638 69
149 638 72
149 638 120
149 639 66
149 639 67
149 639 68
149 639 69
149 639 72
149 639 120
149 640 67
149 640 68
149 640 69
149 640 72
149 640 120
149 641 67
149 641 68
149 641 69
149 641 71
149 641 72
149 641 119
149 642 67
149 642 68
149 642 69
149 642 71
149 642 72
149 642 119
149 643 67
149 643 68
149 643 69
149 643 71
149 643 72
149 643 119
149 644 68
149 644 69
149 644 71
149 644 72
149 644 119
149 645 68
149 645 69
149 645 70
149 645 71
149 645 118
149 646 69
149 646 70
149 646 71
149 646 118
149 647 69
149 647 70
149 647 71
149 647 118
149 648 69
149 648 70
149 648 71
149 648 118
149 649 69
149 649 70
149 649 71
149 649 118
149 650 69
149 650 70
149 650 71
149 650 117
149 651 63
149 651 65
149 651 66
149 651 117
149 652 62
149 652 63
149 652 64
149 652 66
149 652 117
149 653 66
149 653 67
149 653 117
149 654 67
149 654 68
149 654 117
149 655 67
149 655 68
149 655 117
149 656 67
149 656 68
149 656 117
149 657 68
149 657 69
149 657 117
149 658 68
149 658 69
149 658 117
149 659 68
149 659 69
149 659 118
149 660 69
149 660 118
149 661 69
149 661 70
149 661 118
149 662 69
149 662 70
149 662 119
149 663 70
149 663 71
149 663 119
149 664 70
149 664 71
149 664 120
149 665 70
149 665 71
149 665 120
149 666 71
149 666 72
149 666 120
149 667 71
149 667 72
149 667 121
149 668 71
149 668 72
149 668 121
149 669 72
149 669 73
149 669 121
149 670 72
149 670 73
149 670 122
149 671 72
149 671 73
149 671 122
149 672 73
149 672 74
149 672 123
149 673 73
149 673 74
149 673 123
149 674 73
149 674 74
149 674 123
149 675 73
149 675 74
149 675 123
149 676 74
149 676 75
149 676 123
149 677 74
149 677 75
149 677 124
149 678 74
149 678 75
149 678 124
149 679 75
149 679 124
149 680 75
149 680 76
149 680 125
149 681 75
149 681 76
149 681 125
149 682 76
149 682 77
149 682 125
149 683 76
149 683 77
149 683 126
149 684 77
149 684 78
149 684 126
149 685 77
149 685 78
149 685 126
149 686 78
149 686 126
149 687 78
149 687 79
149 687 127
149 688 78
149 688 79
149 688 127
149 689 79
149 689 128
149 690 79
149 690 80
149 690 128
149 691 79
149 691 80
149 691 129
149 692 80
149 692 81
149 692 129
149 693 80
149 693 81
149 693 130
149 694 81
149 694 82
149 694 130
149 695 81
149 695 82
149 695 131
149 696 82
149 696 83
149 696 131
149 697 82
149 697 83
149 697 131
149 698 83
149 698 84
149 698 132
149 699 83
149 699 84
149 699 132
149 700 84
149 700 85
149 700 132
149 701 84
149 701 85
149 701 133
149 702 85
149 702 86
149 702 133
149 703 86
149 703 134
149 704 86
149 704 87
149 704 134
149 704 152
149 704 153
149 704 154
149 704 155
149 704 156
149 704 157
149 705 87
149 705 88
149 705 134
149 705 152
149 705 153
149 705 154
149 705 155
149 705 156
149 705 157
149 706 87
149 706 88
149 706 135
149 706 152
149 706 153
149 706 154
149 706 155
149 706 156
149 706 157
149 707 88
149 707 135
149 707 152
149 707 153
149 707 154
149 707 155
149 707 156
149 707 157
149 708 88
149 708 89
149 708 135
149 708 139
149 708 152
149 708 153
149 708 154
149 708 155
149 708 156
149 708 157
149 708 158
149 709 88
149 709 89
149 709 136
149 709 139
149 709 152
149 709 153
149 709 154
149 709 155
149 709 156
149 709 157
149 709 158
149 710 89
149 710 136
149 710 139
149 710 152
149 710 153
149 710 154
149 710 155
149 710 156
149 710 157
149 710 158
149 710 159
149 711 89
149 711 136
149 711 152
149 711 153
149 711 154
149 711 155
149 711 156
149 711 157
149 711 158
149 711 159
149 712 89
149 712 90
149 712 137
149 712 152
149 712 153
149 712 154
149 712 155
149 712 156
149 712 157
149 712 158
149 712 159
149 712 160
149 713 90
149 713 137
149 713 152
149 713 153
149 713 154
149 713 155
149 713 156
149 713 157
149 713 158
149 713 159
149 713 160
149 714 90
149 714 137
149 714 152
149 714 153
149 714 159
149 714 160
149 714 161
149 714 162
149 714 163
149 715 90
149 715 91
149 715 137
149 715 140
149 715 151
149 715 152
149 715 161
149 715 162
149 715 163
149 715 164
149 716 91
149 716 138
149 716 141
149 716 151
149 716 152
149 716 163
149 716 164
149 717 91
149 717 138
149 717 142
149 717 151
149 717 152
149 717 164
149 717 165
149 717 166
149 718 91
149 718 92
149 718 138
149 718 143
149 718 151
149 718 165
149 718 166
149 719 92
149 719 138
149 719 144
149 719 150
149 719 151
149 719 165
149 719 166
149 719 167
149 720 92
149 720 138
149 720 139
149 720 145
149 720 150
149 720 166
149 720 167
149 721 92
149 721 93
149 721 139
149 721 145
149 721 146
149 721 149
149 721 150
149 721 167
149 721 168
149 722 92
149 722 93
149 722 139
149 722 140
149 722 141
149 722 142
149 722 144
149 722 146
149 722 147
149 722 148
149 722 149
149 722 167
149 722 168
149 723 93
149 723 144
149 723 145
149 723 147
149 723 148
149 723 149
149 723 168
149 723 169
149 724 93
149 724 145
149 724 148
149 724 168
149 724 169
149 725 93
149 725 94
149 725 168
149 725 169
149 725 170
149 726 94
149 726 169
149 726 170
149 727 94
149 727 169
149 727 170
149 728 94
149 728 95
149 728 169
149 728 170
149 729 95
149 729 169
149 729 170
149 729 171
149 730 95
149 730 170
149 730 171
149 730 172
149 731 95
149 731 170
149 731 171
149 732 95
149 732 170
149 732 171
149 732 172
149 733 95
149 733 170
149 733 171
149 733 172
149 733 173
149 734 95
149 734 171
149 734 172
149 734 173
149 735 95
149 735 96
149 735 171
149 735 172
149 735 173
149 736 95
149 736 172
149 736 173
149 736 174
149 737 95
149 737 172
149 737 173
149 737 174
149 738 95
149 738 172
149 738 173
149 738 174
149 738 175
149 738 176
149 739 95
149 739 173
149 739 174
149 739 175
149 740 95
149 740 173
149 740 174
149 740 175
149 740 176
149 740 177
149 741 94
149 741 95
149 741 174
149 741 175
149 741 176
149 741 177
149 741 178
149 742 94
149 742 95
149 742 174
149 742 175
149 742 176
149 742 177
149 742 178
149 742 180
149 743 94
149 743 95
149 743 175
149 743 176
149 743 177
149 743 178
149 743 179
149 743 181
149 744 94
149 744 95
149 744 175
149 744 176
149 744 177
149 744 178
149 744 179
149 744 180
149 744 181
149 744 182
149 744 184
149 745 94
149 745 176
149 745 177
149 745 178
149 745 179
149 745 180
149 745 181
149 745 182
149 745 183
149 746 94
149 746 179
149 746 180
149 746 181
149 746 182
149 746 183
149 747 94
149 747 179
149 747 180
149 747 181
149 747 182
149 747 183
149 748 94
149 748 180
149 748 181
149 748 182
149 748 183
149 749 94
149 749 181
149 749 182
149 750 93
149 750 94
149 750 181
149 750 182
149 751 93
149 751 94
149 751 181
149 751 182
149 752 93
149 752 94
149 752 182
149 753 93
149 753 94
149 753 182
149 753 183
149 754 93
149 754 182
149 754 183
149 755 93
149 755 182
149 755 183
149 756 93
149 756 182
149 756 183
149 757 93
149 757 183
149 758 93
149 758 183
149 759 93
149 759 183
149 760 92
149 760 93
149 760 183
149 761 92
149 761 93
149 761 183
149 761 184
149 762 92
149 762 183
149 762 184
149 763 92
149 763 183
149 763 184
149 764 92
149 764 183
149 765 92
149 765 183
149 765 184
149 766 92
149 766 183
149 767 92
149 767 183
149 768 92
149 768 183
149 769 92
149 769 183
149 770 92
149 770 183
149 771 92
149 771 93
149 771 183
149 772 92
149 772 93
149 772 181
149 772 183
149 773 93
149 773 180
149 773 181
149 774 93
149 774 180
149 775 92
149 775 93
149 775 179
149 776 92
149 776 93
149 776 179
149 777 92
149 777 178
149 778 92
149 778 178
149 779 92
149 779 177
149 780 92
149 780 176
149 781 92
149 781 176
149 782 92
149 782 175
149 783 92
149 783 174
149 784 92
149 784 174
149 785 93
149 785 173
149 786 93
149 786 173
149 787 93
149 787 173
149 788 94
149 788 172
149 789 94
149 789 172
149 790 94
149 790 172
149 791 94
149 791 171
149 792 95
149 792 171
149 793 95
149 793 171
149 794 95
149 794 171
149 795 95
149 795 170
149 796 95
149 796 170
149 797 95
149 797 169
149 798 95
149 798 169
149 799 96
149 799 168
149 800 96
149 800 167
149 801 96
149 801 167
149 802 96
149 802 166
149 803 96
149 803 165
149 804 96
149 804 165
149 805 97
149 805 164
149 806 97
149 806 163
149 807 97
149 807 163
149 808 97
149 808 162
149 809 98
149 809 162
149 810 99
149 810 161
149 811 99
149 811 160
149 812 100
149 812 160
149 813 100
149 813 160
149 814 100
149 814 101
149 814 159
149 815 101
149 815 102
149 815 159
149 816 102
149 816 159
149 817 102
149 817 103
149 817 158
149 818 103
149 818 104
149 818 158
149 819 104
149 819 105
149 819 157
149 819 158
149 820 105
149 820 157
149 821 105
149 821 106
149 821 156
149 822 106
149 822 107
149 822 155
149 822 156
149 823 107
149 823 108
149 823 154
149 823 155
149 824 108
149 824 109
149 824 154
149 825 109
149 825 110
149 825 153
149 825 154
149 826 110
149 826 111
149 826 152
149 826 153
149 827 111
149 827 151
149 827 152
149 828 111
149 828 112
149 828 150
149 828 151
149 829 112
149 829 113
149 829 149
149 829 150
149 830 113
149 830 114
149 830 115
149 830 148
149 830 149
149 831 113
149 831 114
149 831 116
149 831 117
149 831 147
149 831 148
149 832 118
149 832 119
149 832 120
149 832 147
149 832 148
149 833 121
149 833 146
149 833 147
149 834 122
149 834 123
149 834 146
149 835 124
149 835 146
149 836 125
149 836 126
149 836 143
149 836 144
149 836 145
149 837 127
149 837 128
149 837 129
149 837 130
149 837 131
149 837 132
149 837 133
149 837 134
149 837 135
149 837 136
149 837 137
149 837 138
149 837 139
149 837 140
149 837 141
149 837 142
150 463 106
150 463 107
150 463 108
150 463 109
150 463 110
150 464 104
150 464 105
150 464 106
150 464 112
150 464 113
150 465 102
150 465 103
150 465 114
150 465 115
150 466 99
150 466 100
150 466 101
150 466 117
150 466 118
150 467 98
150 467 99
150 467 119
150 467 120
150 468 96
150 468 97
150 468 98
150 469 96
150 469 97
150 469 127
150 470 95
150 470 96
150 470 97
150 471 95
150 471 96
150 471 97
150 472 95
150 472 96
150 472 97
150 472 127
150 473 96
150 473 97
150 474 95
150 474 96
150 475 92
150 475 93
150 475 94
150 476 91
150 476 92
150 476 129
150 477 90
150 477 91
150 477 133
150 478 91
150 478 133
150 478 135
150 479 89
150 480 89
150 480 91
150 481 90
150 481 91
150 481 94
150 481 95
150 481 96
150 481 97
150 481 103
150 481 104
150 481 109
150 481 113
150 481 137
150 482 91
150 482 92
150 482 94
150 482 95
150 482 96
150 482 137
150 483 91
150 483 92
150 483 93
150 483 94
150 483 95
150 483 96
150 483 137
150 484 98
150 484 99
150 485 100
150 485 101
150 485 136
150 486 102
150 488 135
150 489 104
150 490 135
150 491 135
150 491 136
150 492 135
150 493 136
150 493 137
150 494 135
150 495 104
150 496 104
150 496 106
150 497 134
150 500 133
150 502 103
150 502 104
150 502 130
150 503 61
150 503 62
150 503 63
150 503 104
150 503 130
150 504 60
150 504 61
150 504 62
150 504 63
150 504 64
150 504 103
150 504 104
150 504 130
150 505 60
150 505 61
150 505 62
150 505 63
150 505 64
150 505 65
150 505 102
150 505 103
150 505 104
150 505 130
150 506 59
150 506 60
150 506 61
150 506 62
150 506 63
150 506 64
150 506 65
150 506 102
150 506 103
150 506 104
150 506 130
150 507 59
150 507 60
150 507 61
150 507 62
150 507 63
150 507 64
150 507 65
150 507 102
150 507 103
150 507 104
150 507 129
150 508 58
150 508 59
150 508 60
150 508 61
150 508 62
150 508 63
150 508 64
150 508 65
150 508 66
150 508 102
150 508 103
150 508 104
150 508 129
150 509 58
150 509 59
150 509 60
150 509 61
150 509 62
150 509 64
150 509 65
150 509 66
150 509 103
150 509 104
150 509 129
150 510 58
150 510 59
150 510 60
150 510 61
150 510 62
150 510 64
150 510 65
150 510 66
150 510 67
150 510 103
150 510 104
150 510 129
150 511 58
150 511 59
150 511 60
150 511 61
150 511 62
150 511 63
150 511 64
150 511 65
150 511 66
150 511 67
150 511 103
150 511 104
150 511 126
150 511 129
150 512 58
150 512 59
150 512 60
150 512 61
150 512 62
150 512 64
150 512 65
150 512 66
150 512 67
150 512 103
150 512 104
150 512 129
150 513 58
150 513 59
150 513 60
150 513 61
150 513 62
150 513 65
150 513 66
150 513 67
150 513 103
150 513 104
150 513 128
150 514 54
150 514 58
150 514 59
150 514 60
150 514 61
150 514 65
150 514 66
150 514 67
150 514 68
150 514 103
150 514 104
150 514 128
150 514 176
150 514 177
150 514 178
150 514 179
150 515 54
150 515 58
150 515 59
150 515 60
150 515 61
150 515 64
150 515 65
150 515 66
150 515 67
150 515 68
150 515 102
150 515 103
150 515 104
150 515 127
150 515 128
150 515 171
150 515 172
150 515 173
150 515 174
150 515 177
150 515 178
150 515 179
150 516 58
150 516 59
150 516 60
150 516 61
150 516 65
150 516 66
150 516 67
150 516 68
150 516 102
150 516 103
150 516 104
150 516 128
150 516 169
150 516 170
150 516 171
150 516 177
150 516 178
150 516 179
150 517 58
150 517 59
150 517 60
150 517 66
150 517 67
150 517 68
150 517 102
150 517 103
150 517 104
150 517 127
150 517 167
150 517 168
150 517 177
150 517 178
150 517 179
150 517 180
150 518 58
150 518 59
150 518 60
150 518 66
150 518 67
150 518 68
150 518 69
150 518 127
150 518 165
150 518 166
150 518 167
150 518 178
150 518 179
150 518 180
150 519 58
150 519 59
150 519 60
150 519 66
150 519 67
150 519 68
150 519 69
150 519 101
150 519 127
150 519 164
150 519 165
150 519 178
150 519 179
150 519 180
150 520 58
150 520 59
150 520 60
150 520 66
150 520 67
150 520 68
150 520 69
150 520 101
150 520 127
150 520 163
150 520 178
150 520 179
150 520 180
150 521 53
150 521 58
150 521 59
150 521 60
150 521 67
150 521 68
150 521 69
150 521 101
150 521 127
150 521 161
150 521 162
150 521 178
150 521 179
150 521 180
150 521 181
150 522 53
150 522 57
150 522 58
150 522 59
150 522 68
150 522 69
150 522 101
150 522 127
150 522 160
150 522 161
150 522 178
150 522 179
150 522 180
150 522 181
150 523 56
150 523 57
150 523 58
150 523 68
150 523 69
150 523 70
150 523 101
150 523 127
150 523 159
150 523 160
150 523 178
150 523 179
150 523 180
150 523 181
150 524 56
150 524 57
150 524 58
150 524 69
150 524 70
150 524 101
150 524 127
150 524 158
150 524 159
150 524 160
150 524 177
150 524 178
150 524 179
150 524 180
150 524 181
150 524 182
150 525 55
150 525 56
150 525 57
150 525 69
150 525 70
150 525 71
150 525 94
150 525 101
150 525 127
150 525 158
150 525 159
150 525 160
150 525 161
150 525 162
150 525 175
150 525 176
150 525 177
150 525 178
150 525 179
150 525 180
150 525 181
150 525 182
150 525 183
150 525 187
150 526 55
150 526 56
150 526 57
150 526 69
150 526 70
150 526 71
150 526 94
150 526 101
150 526 102
150 526 127
150 526 158
150 526 159
150 526 160
150 526 161
150 526 162
150 526 163
150 526 164
150 526 165
150 526 166
150 526 167
150 526 168
150 526 169
150 526 170
150 526 171
150 526 172
150 526 173
150 526 174
150 526 175
150 526 176
150 526 177
150 526 178
150 526 179
150 526 180
150 526 181
150 526 182
150 526 183
150 526 184
150 526 185
150 526 186
150 526 187
150 526 188
150 527 55
150 527 56
150 527 70
150 527 71
150 527 93
150 527 94
150 527 101
150 527 102
150 527 127
150 527 157
150 527 158
150 527 159
150 527 160
150 527 161
150 527 162
150 527 163
150 527 164
150 527 165
150 527 166
150 527 167
150 527 168
150 527 169
150 527 170
150 527 171
150 527 172
150 527 173
150 527 174
150 527 175
150 527 176
150 527 177
150 527 178
150 527 179
150 527 180
150 527 181
150 527 182
150 527 183
150 527 184
150 527 185
150 527 186
150 527 187
150 528 54
150 528 55
150 528 70
150 528 71
150 528 72
150 528 93
150 528 94
150 528 101
150 528 127
150 528 157
150 528 158
150 528 159
150 528 160
150 528 161
150 528 162
150 528 163
150 528 164
150 528 165
150 528 166
150 528 167
150 528 168
150 528 169
150 528 170
150 528 171
150 528 172
150 528 173
150 528 174
150 528 175
150 528 176
150 528 177
150 528 178
150 528 179
150 528 180
150 528 181
150 528 182
150 528 183
150 528 184
150 528 185
150 528 186
150 528 187
150 529 54
150 529 55
150 529 70
150 529 71
150 529 72
150 529 101
150 529 127
150 529 157
150 529 158
150 529 159
150 529 160
150 529 161
150 529 162
150 529 163
150 529 164
150 529 165
150 529 166
150 529 167
150 529 168
150 529 169
150 529 170
150 529 171
150 529 172
150 529 173
150 529 174
150 529 175
150 529 176
150 529 177
150 529 178
150 529 179
150 529 180
150 529 181
150 529 182
150 529 183
150 529 184
150 529 185
150 529 186
150 529 187
150 530 54
150 530 55
150 530 71
150 530 72
150 530 100
150 530 101
150 530 127
150 530 157
150 530 158
150 530 159
150 530 160
150 530 161
150 530 162
150 530 163
150 530 164
150 530 165
150 530 166
150 530 167
150 530 168
150 530 169
150 530 170
150 530 171
150 530 172
150 530 173
150 530 174
150 530 175
150 530 176
150 530 177
150 530 178
150 530 179
150 530 180
150 530 181
150 530 182
150 530 183
150 530 184
150 530 185
150 530 186
150 530 187
150 531 54
150 531 55
150 531 71
150 531 72
150 531 100
150 531 101
150 531 127
150 531 156
150 531 157
150 531 158
150 531 159
150 531 160
150 531 161
150 531 162
150 531 163
150 531 164
150 531 165
150 531 166
150 531 167
150 531 168
150 531 169
150 531 170
150 531 171
150 531 172
150 531 173
150 531 174
150 531 175
150 531 176
150 531 177
150 531 178
150 531 179
150 531 180
150 531 181
150 531 182
150 531 183
150 531 184
150 531 185
150 531 186
150 531 187
150 531 188
150 532 54
150 532 55
150 532 71
150 532 72
150 532 73
150 532 100
150 532 101
150 532 127
150 532 156
150 532 157
150 532 158
150 532 159
150 532 160
150 532 161
150 532 162
150 532 163
150 532 164
150 532 165
150 532 166
150 532 167
150 532 168
150 532 169
150 532 170
150 532 171
150 532 172
150 532 173
150 532 174
150 532 175
150 532 176
150 532 177
150 532 178
150 532 179
150 532 180
150 532 181
150 532 182
150 532 183
150 532 184
150 532 185
150 532 186
150 532 187
150 533 54
150 533 55
150 533 71
150 533 72
150 533 73
150 533 100
150 533 125
150 533 126
150 533 156
150 533 157
150 533 158
150 533 159
150 533 160
150 533 161
150 533 162
150 533 163
150 533 164
150 533 165
150 533 166
150 533 167
150 533 168
150 533 169
150 533 170
150 533 171
150 533 172
150 533 173
150 533 174
150 533 175
150 533 176
150 533 177
150 533 178
150 533 179
150 533 180
150 533 181
150 533 182
150 533 183
150 533 184
150 533 185
150 533 186
150 533 187
150 533 188
150 534 54
150 534 55
150 534 71
150 534 72
150 534 73
150 534 74
150 534 75
150 534 99
150 534 100
150 534 126
150 534 156
150 534 157
150 534 158
150 534 159
150 534 160
150 534 161
150 534 162
150 534 163
150 534 164
150 534 165
150 534 166
150 534 167
150 534 168
150 534 169
150 534 170
150 534 171
150 534 172
150 534 173
150 534 174
150 534 175
150 534 176
150 534 177
150 534 178
150 534 179
150 534 180
150 534 181
150 534 182
150 534 183
150 534 184
150 534 185
150 534 186
150 534 187
150 534 188
150 535 54
150 535 55
150 535 72
150 535 73
150 535 74
150 535 75
150 535 76
150 535 77
150 535 99
150 535 100
150 535 124
150 535 126
150 535 156
150 535 157
150 535 158
150 535 159
150 535 160
150 535 161
150 535 162
150 535 163
150 535 164
150 535 165
150 535 166
150 535 167
150 535 168
150 535 169
150 535 170
150 535 171
150 535 172
150 535 173
150 535 174
150 535 175
150 535 176
150 535 177
150 535 178
150 535 179
150 535 180
150 535 181
150 535 182
150 535 183
150 535 184
150 535 185
150 535 186
150 535 187
150 535 188
150 536 54
150 536 55
150 536 72
150 536 73
150 536 74
150 536 75
150 536 76
150 536 77
150 536 78
150 536 79
150 536 99
150 536 100
150 536 125
150 536 156
150 536 157
150 536 158
150 536 159
150 536 160
150 536 161
150 536 162
150 536 163
150 536 164
150 536 165
150 536 166
150 536 167
150 536 168
150 536 169
150 536 170
150 536 171
150 536 172
150 536 173
150 536 174
150 536 175
150 536 176
150 536 177
150 536 178
150 536 179
150 536 180
150 536 181
150 536 182
150 536 183
150 536 184
150 536 185
150 536 186
150 536 187
150 536 188
150 537 54
150 537 55
150 537 72
150 537 73
150 537 74
150 537 75
150 537 76
150 537 77
150 537 78
150 537 79
150 537 80
150 537 81
150 537 99
150 537 125
150 537 155
150 537 156
150 537 157
150 537 158
150 537 187
150 537 188
150 538 54
150 538 55
150 538 80
150 538 81
150 538 82
150 538 83
150 538 84
150 538 93
150 538 94
150 538 99
150 538 124
150 538 155
150 538 156
150 538 157
150 538 158
150 538 187
150 538 188
150 539 54
150 539 55
150 539 82
150 539 83
150 539 84
150 539 85
150 539 86
150 539 87
150 539 88
150 539 91
150 539 92
150 539 93
150 539 94
150 539 95
150 539 98
150 539 99
150 539 124
150 539 154
150 539 155
150 539 156
150 539 157
150 539 188
150 540 54
150 540 55
150 540 85
150 540 86
150 540 87
150 540 88
150 540 89
150 540 90
150 540 91
150 540 92
150 540 93
150 540 94
150 540 95
150 540 96
150 540 97
150 540 98
150 540 123
150 540 124
150 540 153
150 540 154
150 540 155
150 540 156
150 540 157
150 540 188
150 540 189
150 541 54
150 541 55
150 541 88
150 541 89
150 541 90
150 541 91
150 541 92
150 541 96
150 541 97
150 541 98
150 541 123
150 541 152
150 541 153
150 541 154
150 541 155
150 541 156
150 541 189
150 542 54
150 542 55
150 542 96
150 542 97
150 542 123
150 542 151
150 542 152
150 542 153
150 542 154
150 542 155
150 542 189
150 543 54
150 543 55
150 543 123
150 543 150
150 543 151
150 543 152
150 543 153
150 543 154
150 543 155
150 543 189
150 544 54
150 544 55
150 544 123
150 544 150
150 544 151
150 544 152
150 544 153
150 544 154
150 544 155
150 544 189
150 545 54
150 545 55
150 545 123
150 545 151
150 545 152
150 545 153
150 545 154
150 545 155
150 545 189
150 546 54
150 546 55
150 546 123
150 546 152
150 546 153
150 546 154
150 546 155
150 546 189
150 547 54
150 547 55
150 547 123
150 547 153
150 547 154
150 547 155
150 547 189
150 548 54
150 548 55
150 548 123
150 548 153
150 548 154
150 548 155
150 548 189
150 549 54
150 549 55
150 549 122
150 549 153
150 549 154
150 549 155
150 549 189
150 550 54
150 550 55
150 550 122
150 550 153
150 550 154
150 550 155
150 550 189
150 551 54
150 551 55
150 551 122
150 551 154
150 551 155
150 551 189
150 552 54
150 552 55
150 552 121
150 552 154
150 552 155
150 552 189
150 553 54
150 553 55
150 553 121
150 553 154
150 553 155
150 553 189
150 554 54
150 554 55
150 554 120
150 554 154
150 554 155
150 554 188
150 555 55
150 555 56
150 555 120
150 555 154
150 555 155
150 555 187
150 556 55
150 556 56
150 556 120
150 556 154
150 556 155
150 556 185
150 556 186
150 557 55
150 557 56
150 557 57
150 557 119
150 557 154
150 557 155
150 557 156
150 557 182
150 557 183
150 558 55
150 558 56
150 558 57
150 558 119
150 558 124
150 558 154
150 558 155
150 558 156
150 558 182
150 559 55
150 559 56
150 559 57
150 559 58
150 559 118
150 559 119
150 559 124
150 559 153
150 559 154
150 559 155
150 559 180
150 559 181
150 560 55
150 560 56
150 560 57
150 560 58
150 560 59
150 560 118
150 560 119
150 560 150
150 560 151
150 560 152
150 560 153
150 560 154
150 560 155
150 560 179
150 561 55
150 561 56
150 561 57
150 561 58
150 561 59
150 561 117
150 561 119
150 561 148
150 561 149
150 561 150
150 561 151
150 561 152
150 561 153
150 561 178
150 561 179
150 562 55
150 562 56
150 562 57
150 562 58
150 562 59
150 562 117
150 562 119
150 562 146
150 562 147
150 562 148
150 562 149
150 562 150
150 562 151
150 562 152
150 562 178
150 563 55
150 563 56
150 563 57
150 563 58
150 563 59
150 563 116
150 563 119
150 563 145
150 563 146
150 563 147
150 563 148
150 563 149
150 563 150
150 563 151
150 563 177
150 564 55
150 564 56
150 564 57
150 564 58
150 564 59
150 564 116
150 564 119
150 564 144
150 564 145
150 564 146
150 564 147
150 564 148
150 564 176
150 565 55
150 565 56
150 565 57
150 565 58
150 565 59
150 565 116
150 565 120
150 565 143
150 565 144
150 565 145
150 565 146
150 565 175
150 566 55
150 566 56
150 566 57
150 566 58
150 566 59
150 566 117
150 566 120
150 566 142
150 566 143
150 566 144
150 566 145
150 566 174
150 567 55
150 567 56
150 567 57
150 567 58
150 567 59
150 567 118
150 567 120
150 567 141
150 567 142
150 567 143
150 567 144
150 567 172
150 567 173
150 568 55
150 568 56
150 568 57
150 568 58
150 568 59
150 568 119
150 568 121
150 568 140
150 568 141
150 568 142
150 568 143
150 568 171
150 568 172
150 569 55
150 569 56
150 569 57
150 569 58
150 569 59
150 569 119
150 569 121
150 569 139
150 569 140
150 569 141
150 569 142
150 569 170
150 570 55
150 570 56
150 570 57
150 570 58
150 570 59
150 570 120
150 570 122
150 570 138
150 570 139
150 570 140
150 570 141
150 570 142
150 570 169
150 571 55
150 571 56
150 571 57
150 571 58
150 571 59
150 571 121
150 571 122
150 571 124
150 571 137
150 571 138
150 571 139
150 571 140
150 571 141
150 571 167
150 571 168
150 572 55
150 572 56
150 572 57
150 572 58
150 572 59
150 572 122
150 572 136
150 572 137
150 572 138
150 572 139
150 572 140
150 572 141
150 572 142
150 572 166
150 572 167
150 573 55
150 573 56
150 573 57
150 573 58
150 573 59
150 573 123
150 573 124
150 573 125
150 573 135
150 573 136
150 573 137
150 573 138
150 573 139
150 573 140
150 573 141
150 573 142
150 573 164
150 573 165
150 574 55
150 574 56
150 574 57
150 574 58
150 574 59
150 574 123
150 574 125
150 574 135
150 574 136
150 574 137
150 574 138
150 574 139
150 574 140
150 574 141
150 574 142
150 574 143
150 574 144
150 574 163
150 574 164
150 575 55
150 575 56
150 575 57
150 575 58
150 575 59
150 575 123
150 575 124
150 575 125
150 575 135
150 575 136
150 575 137
150 575 138
150 575 139
150 575 140
150 575 141
150 575 142
150 575 143
150 575 144
150 575 145
150 575 146
150 575 147
150 575 148
150 575 149
150 575 150
150 575 161
150 575 162
150 576 55
150 576 56
150 576 57
150 576 58
150 576 59
150 576 124
150 576 125
150 576 137
150 576 138
150 576 139
150 576 140
150 576 141
150 576 142
150 576 143
150 576 144
150 576 145
150 576 146
150 576 147
150 576 148
150 576 149
150 576 150
150 576 151
150 576 152
150 576 153
150 576 154
150 576 159
150 576 160
150 577 55
150 577 56
150 577 57
150 577 58
150 577 59
150 577 124
150 577 125
150 577 146
150 577 147
150 577 148
150 577 149
150 577 150
150 577 151
150 577 152
150 577 153
150 577 154
150 577 155
150 577 156
150 577 157
150 577 158
150 578 55
150 578 56
150 578 57
150 578 58
150 578 59
150 578 124
150 578 125
150 578 126
150 579 55
150 579 56
150 579 57
150 579 58
150 579 59
150 579 125
150 579 126
150 580 55
150 580 56
150 580 57
150 580 58
150 580 59
150 580 124
150 580 125
150 581 55
150 581 56
150 581 57
150 581 58
150 581 59
150 581 123
150 581 124
150 582 55
150 582 56
150 582 57
150 582 58
150 582 59
150 582 121
150 582 123
150 583 55
150 583 56
150 583 57
150 583 58
150 583 59
150 583 120
150 583 121
150 584 55
150 584 56
150 584 57
150 584 58
150 584 59
150 584 118
150 584 120
150 585 55
150 585 56
150 585 57
150 585 58
150 585 59
150 585 117
150 585 119
150 586 56
150 586 57
150 586 58
150 586 59
150 586 60
150 586 116
150 586 118
150 587 56
150 587 57
150 587 58
150 587 59
150 587 60
150 587 61
150 587 116
150 587 117
150 588 56
150 588 57
150 588 58
150 588 59
150 588 60
150 588 61
150 588 115
150 588 117
150 589 57
150 589 58
150 589 59
150 589 60
150 589 61
150 589 62
150 589 115
150 589 117
150 590 58
150 590 59
150 590 60
150 590 61
150 590 62
150 590 116
150 590 117
150 591 58
150 591 59
150 591 60
150 591 61
150 591 62
150 591 116
150 591 118
150 592 59
150 592 60
150 592 61
150 592 62
150 592 117
150 592 118
150 593 59
150 593 60
150 593 61
150 593 62
150 593 117
150 593 118
150 594 59
150 594 60
150 594 61
150 594 62
150 594 118
150 595 59
150 595 60
150 595 61
150 595 62
150 595 118
150 595 119
150 596 59
150 596 60
150 596 61
150 596 62
150 596 119
150 597 59
150 597 60
150 597 61
150 597 62
150 597 120
150 598 59
150 598 60
150 598 61
150 598 62
150 598 120
150 599 59
150 599 60
150 599 61
150 599 62
150 599 120
150 600 59
150 600 60
150 600 61
150 600 62
150 600 120
150 601 59
150 601 60
150 601 61
150 601 62
150 601 120
150 602 59
150 602 60
150 602 61
150 602 62
150 602 120
150 603 59
150 603 60
150 603 61
150 603 62
150 603 120
150 604 59
150 604 60
150 604 61
150 604 62
150 604 120
150 605 59
150 605 60
150 605 61
150 605 62
150 605 120
150 606 59
150 606 60
150 606 61
150 606 62
150 606 120
150 607 59
150 607 60
150 607 61
150 607 62
150 607 120
150 608 59
150 608 60
150 608 61
150 608 62
150 608 120
150 609 59
150 609 60
150 609 61
150 609 62
150 609 121
150 610 59
150 610 60
150 610 61
150 610 62
150 610 122
150 611 59
150 611 60
150 611 61
150 611 62
150 611 122
150 612 59
150 612 60
150 612 61
150 612 62
150 612 123
150 613 59
150 613 60
150 613 61
150 613 62
150 613 123
150 614 59
150 614 60
150 614 61
150 614 62
150 614 123
150 615 59
150 615 60
150 615 61
150 615 62
150 615 123
150 616 59
150 616 60
150 616 61
150 616 62
150 616 123
150 617 59
150 617 60
150 617 61
150 617 62
150 617 123
150 618 60
150 618 61
150 618 62
150 618 123
150 619 60
150 619 61
150 619 62
150 619 63
150 619 123
150 620 60
150 620 61
150 620 62
150 620 63
150 620 123
150 621 61
150 621 62
150 621 63
150 621 123
150 622 61
150 622 62
150 622 63
150 622 123
150 623 62
150 623 63
150 623 71
150 623 72
150 623 73
150 623 123
150 624 62
150 624 63
150 624 71
150 624 72
150 624 73
150 624 74
150 624 122
150 624 123
150 625 62
150 625 63
150 625 71
150 625 72
150 625 73
150 625 74
150 625 122
150 626 62
150 626 63
150 626 71
150 626 72
150 626 73
150 626 74
150 626 122
150 627 62
150 627 63
150 627 71
150 627 72
150 627 73
150 627 74
150 627 121
150 628 62
150 628 63
150 628 71
150 628 72
150 628 73
150 628 121
150 629 62
150 629 63
150 629 71
150 629 72
150 629 73
150 629 120
150 630 63
150 630 71
150 630 72
150 630 73
150 630 120
150 631 63
150 631 64
150 631 70
150 631 71
150 631 72
150 631 73
150 631 120
150 632 63
150 632 64
150 632 70
150 632 71
150 632 72
150 632 120
150 633 63
150 633 64
150 633 70
150 633 71
150 633 72
150 633 120
150 634 63
150 634 64
150 634 70
150 634 71
150 634 120
150 635 63
150 635 64
150 635 70
150 635 71
150 635 120
150 636 63
150 636 64
150 636 65
150 636 69
150 636 70
150 636 71
150 636 120
150 637 63
150 637 64
150 637 65
150 637 69
150 637 70
150 637 71
150 637 119
150 638 64
150 638 65
150 638 66
150 638 69
150 638 70
150 638 71
150 638 119
150 639 64
150 639 65
150 639 66
150 639 69
150 639 70
150 639 71
150 639 119
150 640 64
150 640 65
150 640 66
150 640 68
150 640 69
150 640 70
150 640 71
150 640 119
150 641 64
150 641 65
150 641 66
150 641 67
150 641 68
150 641 69
150 641 70
150 641 119
150 642 65
150 642 66
150 642 67
150 642 68
150 642 69
150 642 70
150 642 119
150 643 65
150 643 66
150 643 67
150 643 68
150 643 69
150 643 70
150 643 118
150 644 65
150 644 66
150 644 67
150 644 68
150 644 69
150 644 70
150 644 118
150 645 65
150 645 66
150 645 67
150 645 68
150 645 69
150 645 70
150 645 118
150 646 65
150 646 66
150 646 67
150 646 68
150 646 69
150 646 70
150 646 118
150 647 66
150 647 67
150 647 68
150 647 69
150 647 70
150 647 118
150 648 61
150 648 66
150 648 67
150 648 68
150 648 69
150 648 70
150 648 117
150 649 61
150 649 66
150 649 67
150 649 68
150 649 69
150 649 70
150 649 117
150 650 62
150 650 66
150 650 67
150 650 68
150 650 69
150 650 70
150 650 117
150 651 62
150 651 63
150 651 64
150 651 117
150 652 60
150 652 61
150 652 62
150 652 64
150 652 117
150 653 59
150 653 64
150 653 66
150 653 117
150 654 59
150 654 65
150 654 67
150 654 117
150 655 59
150 655 66
150 655 67
150 655 117
150 656 66
150 656 67
150 656 117
150 657 66
150 657 67
150 657 117
150 658 67
150 658 117
150 659 67
150 659 68
150 659 117
150 660 67
150 660 68
150 660 117
150 661 68
150 661 69
150 661 118
150 662 68
150 662 69
150 662 118
150 663 68
150 663 69
150 663 119
150 664 69
150 664 70
150 664 119
150 665 69
150 665 70
150 665 119
150 666 69
150 666 70
150 666 120
150 667 70
150 667 71
150 667 120
150 668 70
150 668 71
150 668 120
150 669 70
150 669 71
150 669 121
150 670 71
150 670 121
150 671 71
150 671 72
150 671 122
150 672 71
150 672 72
150 672 122
150 673 72
150 673 73
150 673 122
150 674 72
150 674 73
150 674 122
150 675 72
150 675 73
150 675 123
150 676 73
150 676 123
150 677 73
150 677 74
150 677 123
150 678 73
150 678 74
150 678 124
150 679 74
150 679 124
150 680 74
150 680 75
150 680 124
150 681 74
150 681 75
150 681 125
150 682 75
150 682 76
150 682 125
150 683 75
150 683 76
150 683 125
150 684 76
150 684 77
150 684 125
150 685 76
150 685 77
150 685 126
150 686 77
150 686 78
150 686 126
150 687 77
150 687 78
150 687 126
150 688 77
150 688 78
150 688 127
150 689 78
150 689 79
150 689 127
150 690 78
150 690 79
150 690 128
150 691 79
150 691 128
150 692 79
150 692 80
150 692 129
150 693 79
150 693 81
150 693 129
150 694 80
150 694 81
150 694 130
150 695 81
150 695 82
150 695 130
150 696 81
150 696 83
150 696 130
150 697 82
150 697 83
150 697 131
150 698 83
150 698 84
150 698 131
150 699 83
150 699 84
150 699 131
150 699 140
150 700 84
150 700 85
150 700 132
150 700 140
150 701 84
150 701 86
150 701 132
150 701 140
150 701 153
150 701 154
150 701 155
150 701 156
150 702 85
150 702 86
150 702 133
150 702 151
150 702 152
150 702 153
150 702 154
150 702 155
150 702 156
150 702 157
150 702 158
150 702 159
150 703 86
150 703 87
150 703 133
150 703 150
150 703 151
150 703 152
150 703 153
150 703 154
150 703 155
150 703 156
150 703 157
150 703 158
150 703 159
150 704 86
150 704 87
150 704 134
150 704 149
150 704 150
150 704 151
150 704 158
150 704 159
150 705 87
150 705 88
150 705 134
150 705 149
150 705 150
150 705 151
150 705 158
150 705 159
150 705 160
150 706 87
150 706 88
150 706 134
150 706 149
150 706 150
150 706 151
150 706 158
150 706 159
150 706 160
150 707 88
150 707 89
150 707 135
150 707 149
150 707 150
150 707 151
150 707 158
150 707 159
150 707 160
150 707 161
150 707 162
150 708 88
150 708 89
150 708 135
150 708 149
150 708 150
150 708 151
150 708 159
150 708 160
150 708 161
150 708 162
150 709 89
150 709 135
150 709 149
150 709 150
150 709 151
150 709 159
150 709 160
150 709 161
150 709 162
150 709 163
150 710 89
150 710 90
150 710 136
150 710 149
150 710 150
150 710 151
150 710 160
150 710 161
150 710 162
150 710 163
150 711 90
150 711 136
150 711 140
150 711 149
150 711 150
150 711 151
150 711 160
150 711 161
150 711 162
150 711 163
150 711 164
150 712 90
150 712 91
150 712 136
150 712 140
150 712 149
150 712 150
150 712 151
150 712 161
150 712 162
150 712 163
150 712 164
150 712 165
150 713 90
150 713 91
150 713 136
150 713 140
150 713 149
150 713 150
150 713 151
150 713 161
150 713 162
150 713 163
150 713 164
150 713 165
150 713 166
150 714 91
150 714 137
150 714 140
150 714 150
150 714 151
150 714 164
150 714 165
150 714 166
150 714 167
150 714 168
150 715 91
150 715 92
150 715 137
150 715 141
150 715 150
150 715 151
150 715 165
150 715 166
150 715 167
150 715 168
150 716 92
150 716 137
150 716 150
150 716 165
150 716 166
150 716 167
150 716 168
150 716 169
150 717 92
150 717 137
150 717 143
150 717 144
150 717 150
150 717 167
150 717 168
150 717 169
150 718 92
150 718 138
150 718 144
150 718 150
150 718 167
150 718 168
150 718 169
150 719 93
150 719 138
150 719 139
150 719 144
150 719 145
150 719 149
150 719 150
150 719 168
150 719 169
150 719 170
150 720 93
150 720 137
150 720 139
150 720 140
150 720 141
150 720 145
150 720 146
150 720 147
150 720 148
150 720 149
150 720 168
150 720 169
150 720 170
150 720 189
150 720 190
150 721 93
150 721 137
150 721 139
150 721 144
150 721 146
150 721 147
150 721 148
150 721 149
150 721 169
150 721 170
150 721 171
150 721 189
150 721 190
150 722 93
150 722 94
150 722 144
150 722 147
150 722 148
150 722 169
150 722 170
150 722 171
150 722 188
150 722 189
150 722 190
150 723 94
150 723 170
150 723 171
150 723 188
150 723 189
150 723 190
150 724 94
150 724 170
150 724 171
150 724 172
150 724 188
150 724 189
150 724 190
150 725 94
150 725 95
150 725 171
150 725 172
150 725 173
150 725 189
150 726 95
150 726 171
150 726 172
150 726 173
150 726 188
150 726 189
