ply
format ascii 1.0
comment Created by Open3D
element vertex 4089
property double x
property double y
property double z
end_header
127 483 114
127 483 115
127 483 118
127 483 119
127 484 108
127 484 109
127 484 114
127 484 115
127 484 116
127 484 120
127 485 107
127 485 111
127 485 115
127 485 116
127 485 117
127 485 118
127 485 122
127 485 123
127 486 107
127 486 117
127 486 118
127 486 119
127 486 120
127 486 123
127 486 124
127 487 107
127 487 119
127 487 120
127 487 121
127 487 122
127 487 123
127 487 124
127 488 121
127 488 122
127 488 123
127 489 108
127 489 109
127 489 118
127 489 122
127 489 123
127 490 109
127 490 110
127 490 123
127 491 110
127 491 111
127 491 123
127 492 111
127 492 112
127 492 123
127 493 110
127 493 111
127 493 123
127 494 107
127 494 108
127 494 109
127 494 123
127 495 107
127 495 108
127 495 123
127 496 107
127 496 108
127 497 107
127 498 107
127 499 107
127 499 124
127 500 107
127 500 124
127 501 106
127 501 107
127 501 124
127 502 106
127 502 107
127 503 106
127 503 107
127 503 125
127 504 106
127 504 107
127 505 106
127 505 107
127 505 123
127 505 124
127 505 125
127 506 106
127 506 107
127 506 125
127 507 106
127 507 107
127 507 125
127 508 106
127 508 107
127 508 125
127 509 106
127 509 107
127 510 106
127 510 107
127 511 106
127 511 107
127 512 106
127 512 107
127 513 106
127 513 107
127 513 124
127 514 106
127 514 107
127 515 106
127 515 107
127 515 127
127 516 106
127 516 107
127 516 125
127 517 106
127 517 107
127 517 125
127 518 106
127 518 107
127 518 125
127 519 106
127 519 107
127 519 124
127 519 125
127 520 106
127 520 107
127 520 125
127 521 106
127 521 107
127 521 125
127 522 123
127 522 125
127 523 123
127 523 125
127 524 107
127 524 123
127 524 125
127 525 107
127 525 125
127 526 107
127 526 125
127 527 107
127 527 125
127 528 107
127 528 125
127 529 125
127 530 125
127 531 125
127 532 125
127 533 107
127 533 125
127 534 107
127 534 125
127 535 106
127 535 107
127 535 125
127 536 106
127 536 107
127 536 125
127 537 106
127 537 125
127 538 125
127 539 106
127 539 125
127 540 106
127 540 123
127 540 125
127 541 106
127 541 107
127 541 125
127 542 106
127 542 107
127 542 125
127 543 106
127 543 107
127 543 125
127 544 106
127 544 107
127 544 125
127 545 105
127 545 106
127 545 125
127 546 105
127 546 106
127 546 125
127 547 105
127 547 125
127 548 104
127 548 105
127 548 123
127 548 125
127 549 125
127 550 103
127 550 104
127 550 125
127 551 103
127 551 125
127 552 125
127 553 103
127 553 125
127 554 102
127 554 125
127 555 124
127 556 124
127 557 124
127 558 124
127 559 101
127 559 124
127 560 101
127 560 124
127 561 124
127 562 124
127 563 124
127 564 124
127 565 100
127 565 124
127 566 100
127 566 124
127 567 100
127 567 124
127 568 124
127 569 124
127 570 124
127 571 99
127 571 124
127 572 99
127 572 124
127 573 124
127 574 124
127 575 124
127 576 98
127 576 124
127 577 98
127 577 124
127 578 98
127 578 124
127 579 124
127 580 124
127 581 124
127 582 97
127 582 124
127 583 97
127 583 124
127 584 97
127 584 124
127 585 97
127 585 124
127 586 124
127 587 124
127 588 124
127 589 96
127 589 124
127 590 96
127 590 124
127 591 125
127 592 125
127 593 125
127 594 126
127 595 95
127 595 127
127 596 95
127 596 127
127 597 127
127 598 128
127 599 128
127 600 128
127 601 94
127 601 128
127 602 94
127 602 128
127 603 128
127 604 128
127 605 129
127 606 129
127 607 129
127 608 93
127 608 129
127 609 93
127 609 129
127 610 93
127 610 130
127 611 130
127 612 130
127 613 130
127 614 131
127 615 131
127 616 131
127 617 92
127 617 131
127 618 92
127 618 131
127 619 131
127 620 132
127 621 132
127 622 92
127 622 132
127 623 92
127 623 132
127 624 92
127 624 132
127 625 92
127 625 132
127 626 92
127 626 132
127 627 92
127 627 132
127 628 92
127 628 132
127 629 92
127 629 132
127 630 92
127 630 132
127 631 132
127 632 132
127 633 132
127 634 132
127 635 131
127 636 131
127 637 131
127 638 131
127 639 131
127 640 131
127 641 131
127 642 131
127 643 131
127 644 131
127 645 130
127 646 130
127 647 130
127 648 130
127 649 130
127 650 91
127 650 130
127 651 91
127 651 92
127 651 130
127 652 91
127 652 92
127 652 130
127 653 90
127 653 91
127 653 130
127 654 90
127 654 130
127 655 75
127 655 77
127 655 78
127 655 89
127 655 130
127 656 73
127 656 74
127 656 79
127 656 88
127 656 130
127 657 73
127 657 74
127 657 80
127 657 87
127 657 130
127 658 72
127 658 73
127 658 81
127 658 87
127 658 130
127 659 73
127 659 81
127 659 82
127 659 86
127 659 130
127 660 73
127 660 82
127 660 83
127 660 84
127 660 85
127 660 86
127 660 131
127 661 72
127 661 73
127 661 83
127 661 84
127 661 85
127 661 131
127 662 73
127 662 131
127 663 72
127 663 73
127 663 131
127 664 72
127 664 73
127 664 131
127 665 72
127 665 131
127 666 72
127 666 131
127 667 72
127 667 131
127 668 72
127 668 131
127 669 72
127 669 132
127 670 72
127 670 132
127 671 72
127 671 132
127 672 71
127 672 72
127 672 132
127 673 71
127 673 72
127 673 132
127 674 71
127 674 132
127 675 71
127 675 132
127 676 71
127 676 132
127 677 71
127 677 132
127 678 71
127 678 132
127 679 71
127 679 132
127 680 71
127 680 72
127 680 133
127 681 71
127 681 72
127 681 133
127 682 72
127 682 133
127 683 72
127 683 73
127 683 133
127 684 72
127 684 73
127 684 133
127 685 73
127 685 133
127 686 73
127 686 133
127 687 73
127 687 133
127 688 73
127 688 133
127 689 73
127 689 133
127 690 73
127 690 74
127 690 133
127 691 73
127 691 74
127 691 133
127 692 74
127 692 133
127 693 74
127 693 133
127 694 74
127 694 132
127 695 74
127 695 132
127 696 74
127 696 75
127 696 133
127 697 74
127 697 75
127 697 132
127 698 75
127 698 133
127 699 75
127 699 133
127 700 75
127 700 133
127 701 75
127 701 133
127 702 75
127 702 133
127 703 75
127 703 76
127 703 133
127 704 75
127 704 76
127 704 133
127 704 135
127 705 76
127 705 133
127 705 135
127 706 76
127 706 135
127 707 76
127 707 135
127 708 76
127 708 135
127 709 76
127 709 134
127 709 135
127 710 76
127 710 77
127 710 134
127 711 76
127 711 134
127 712 76
127 712 77
127 712 134
127 713 76
127 713 134
127 714 76
127 714 134
127 715 76
127 715 134
127 716 75
127 716 76
127 716 134
127 716 135
127 717 76
127 717 134
127 717 135
127 718 75
127 718 76
127 718 134
127 718 135
127 718 136
127 719 76
127 719 134
127 719 135
127 719 136
127 719 137
127 720 76
127 720 136
127 720 137
127 720 138
127 721 76
127 721 77
127 721 137
127 721 138
127 722 76
127 722 77
127 722 138
127 723 77
127 723 138
127 724 77
127 724 78
127 725 77
127 725 78
127 726 78
127 727 78
127 727 79
127 727 139
127 728 78
127 728 79
127 728 139
127 729 79
127 729 80
127 729 139
127 730 79
127 730 80
127 730 139
127 731 80
127 731 81
127 731 139
127 732 80
127 732 81
127 732 139
127 733 81
127 733 139
127 734 81
127 734 82
127 734 139
127 735 81
127 735 82
127 735 139
127 736 82
127 736 139
127 737 82
127 737 83
127 737 139
127 738 82
127 738 83
127 738 139
127 739 83
127 739 84
127 739 139
127 740 83
127 740 84
127 740 138
127 740 139
127 741 84
127 741 138
127 741 139
127 742 84
127 742 138
127 743 84
127 743 85
127 743 138
127 744 84
127 744 85
127 744 137
127 744 138
127 745 85
127 745 138
127 745 139
127 746 85
127 746 138
127 746 139
127 747 85
127 747 138
127 747 139
127 748 85
127 748 86
127 748 139
127 749 85
127 749 86
127 749 139
127 749 140
127 750 86
127 750 139
127 750 140
127 751 86
127 751 87
127 751 140
127 752 86
127 752 87
127 752 140
127 752 141
127 753 87
127 753 140
127 753 141
127 754 87
127 754 141
127 755 87
127 755 88
127 755 141
127 756 87
127 756 88
127 756 141
127 757 88
127 757 141
127 757 142
127 758 88
127 758 89
127 758 142
127 759 88
127 759 89
127 759 142
127 760 89
127 760 142
127 761 89
127 761 90
127 761 142
127 761 143
127 762 89
127 762 90
127 762 142
127 762 143
127 763 90
127 763 143
127 764 90
127 764 143
127 765 90
127 765 91
127 765 143
127 765 144
127 766 90
127 766 91
127 766 143
127 766 144
127 767 91
127 767 144
127 768 91
127 768 92
127 768 144
127 769 91
127 769 92
127 769 144
127 770 92
127 770 144
127 770 145
127 771 92
127 771 93
127 771 145
127 772 92
127 772 93
127 772 145
127 773 93
127 773 145
127 774 93
127 774 145
127 775 93
127 775 94
127 775 146
127 776 93
127 776 94
127 776 146
127 777 94
127 777 95
127 777 146
127 778 94
127 778 95
127 778 147
127 779 94
127 779 95
127 779 147
127 780 95
127 780 96
127 780 147
127 781 95
127 781 96
127 781 147
127 782 96
127 782 147
127 783 96
127 783 97
127 783 147
127 784 97
127 784 98
127 784 147
127 785 98
127 785 147
127 786 98
127 786 99
127 786 147
127 787 99
127 787 100
127 787 147
127 788 100
127 788 147
127 789 100
127 789 101
127 789 147
127 790 101
127 790 102
127 790 147
127 790 148
127 791 101
127 791 102
127 791 147
127 791 148
127 792 102
127 792 103
127 792 147
127 792 148
127 793 103
127 793 104
127 793 147
127 793 148
127 794 104
127 794 147
127 794 148
127 795 104
127 795 105
127 795 147
127 795 148
127 796 105
127 796 147
127 796 148
127 797 105
127 797 106
127 797 148
127 798 105
127 798 106
127 798 148
127 799 106
127 799 107
127 799 148
127 799 149
127 800 106
127 800 107
127 800 148
127 800 149
127 801 107
127 801 148
127 801 149
127 802 107
127 802 108
127 802 109
127 802 148
127 802 149
127 803 108
127 803 109
127 803 110
127 803 111
127 803 147
127 803 148
127 803 149
127 804 108
127 804 109
127 804 110
127 804 111
127 804 148
127 804 149
127 805 109
127 805 110
127 805 111
127 805 112
127 805 148
127 805 149
127 806 110
127 806 111
127 806 112
127 806 113
127 806 147
127 806 148
127 806 149
127 807 110
127 807 112
127 807 113
127 807 147
127 807 148
127 807 149
127 808 113
127 808 114
127 808 115
127 808 147
127 808 148
127 808 149
127 809 114
127 809 116
127 809 147
127 809 148
127 809 149
127 810 115
127 810 116
127 810 117
127 810 147
127 810 148
127 810 149
127 811 116
127 811 117
127 811 118
127 811 119
127 811 147
127 811 148
127 811 149
127 812 117
127 812 118
127 812 120
127 812 147
127 812 148
127 813 120
127 813 146
127 813 147
127 813 148
127 814 120
127 814 121
127 814 146
127 814 147
127 814 148
127 815 121
127 815 146
127 815 147
127 816 122
127 816 123
127 816 145
127 816 146
127 817 122
127 817 123
127 817 143
127 817 144
127 817 145
127 818 123
127 818 142
127 818 143
127 818 144
127 819 124
127 819 140
127 819 141
127 819 142
127 820 125
127 820 126
127 820 128
127 820 136
127 820 137
127 820 138
127 820 139
127 820 140
127 821 126
127 821 127
127 821 128
127 821 129
127 821 130
127 821 131
127 821 132
127 821 133
127 821 134
127 821 135
127 821 136
127 821 137
127 821 138
128 478 108
128 478 109
128 478 110
128 479 108
128 479 112
128 480 109
128 480 113
128 481 107
128 481 108
128 481 109
128 481 115
128 482 107
128 482 111
128 482 117
128 483 107
128 483 119
128 484 107
128 484 121
128 485 107
128 485 123
128 485 124
128 486 107
128 486 124
128 486 125
128 487 107
128 487 124
128 487 125
128 488 122
128 488 123
128 488 124
128 489 108
128 489 123
128 489 124
128 490 109
128 490 123
128 490 124
128 491 109
128 491 124
128 492 110
128 492 124
128 493 109
128 493 124
128 494 107
128 494 108
128 494 124
128 495 107
128 495 108
128 495 124
128 496 106
128 496 107
128 496 124
128 497 106
128 497 107
128 497 124
128 498 106
128 498 107
128 498 124
128 499 106
128 499 107
128 500 106
128 500 107
128 501 106
128 501 107
128 501 125
128 502 106
128 502 107
128 502 125
128 503 106
128 503 107
128 503 126
128 504 106
128 504 107
128 504 126
128 505 106
128 505 107
128 506 106
128 506 107
128 506 123
128 506 124
128 507 106
128 507 107
128 507 123
128 508 106
128 508 107
128 508 123
128 509 106
128 509 107
128 509 125
128 510 106
128 510 107
128 511 106
128 511 107
128 512 106
128 512 107
128 513 106
128 513 107
128 514 106
128 514 107
128 514 127
128 514 129
128 515 106
128 515 107
128 515 125
128 515 127
128 516 106
128 516 107
128 516 125
128 517 106
128 517 107
128 517 125
128 518 106
128 518 107
128 518 125
128 519 106
128 519 107
128 519 125
128 520 106
128 520 107
128 520 125
128 521 106
128 521 107
128 521 125
128 522 125
128 523 125
128 524 125
128 525 125
128 526 125
128 527 125
128 528 125
128 529 125
128 530 107
128 530 125
128 531 107
128 531 125
128 532 106
128 532 107
128 532 125
128 533 106
128 533 125
128 534 106
128 534 125
128 535 125
128 536 125
128 537 106
128 537 125
128 538 105
128 538 106
128 538 125
128 539 105
128 539 106
128 539 125
128 540 105
128 540 106
128 540 125
128 541 105
128 541 106
128 541 125
128 542 105
128 542 106
128 542 125
128 543 106
128 543 125
128 544 105
128 544 106
128 544 125
128 545 125
128 546 104
128 546 105
128 546 125
128 547 104
128 547 125
128 548 125
128 549 103
128 549 104
128 549 125
128 550 125
128 551 125
128 552 103
128 552 125
128 553 102
128 553 125
128 554 125
128 555 125
128 556 102
128 556 125
128 557 101
128 557 125
128 558 101
128 558 125
128 559 101
128 559 125
128 560 125
128 561 125
128 562 125
128 563 100
128 563 125
128 564 100
128 564 125
128 565 100
128 565 125
128 566 125
128 567 125
128 568 125
128 569 125
128 570 99
128 570 125
128 571 99
128 571 125
128 572 125
128 573 125
128 574 125
128 575 98
128 575 125
128 576 98
128 576 125
128 577 125
128 578 125
128 579 125
128 580 97
128 580 125
128 581 97
128 581 125
128 582 97
128 582 125
128 583 97
128 583 125
128 584 125
128 585 125
128 586 125
128 587 96
128 587 125
128 588 96
128 588 125
128 589 125
128 590 125
128 591 125
128 592 126
128 593 95
128 593 126
128 594 95
128 594 126
128 595 127
128 596 127
128 597 127
128 598 127
128 599 94
128 599 128
128 600 94
128 600 128
128 601 128
128 602 128
128 603 128
128 604 128
128 605 128
128 606 93
128 606 129
128 607 93
128 607 129
128 608 93
128 608 129
128 609 129
128 610 130
128 611 130
128 612 130
128 613 130
128 614 130
128 615 92
128 615 131
128 616 92
128 616 131
128 617 131
128 618 131
128 619 92
128 619 131
128 620 92
128 620 131
128 621 131
128 622 132
128 623 132
128 624 132
128 625 132
128 626 132
128 627 132
128 628 132
128 629 132
128 630 132
128 631 132
128 632 132
128 633 132
128 634 131
128 635 131
128 636 131
128 637 131
128 638 131
128 639 131
128 640 131
128 641 91
128 641 92
128 641 131
128 642 91
128 642 92
128 642 131
128 643 91
128 643 92
128 643 131
128 644 91
128 644 92
128 644 131
128 645 91
128 645 92
128 645 130
128 646 91
128 646 92
128 646 130
128 647 91
128 647 92
128 647 130
128 648 91
128 648 92
128 648 130
128 649 91
128 649 92
128 649 130
128 650 92
128 650 130
128 651 90
128 651 130
128 652 90
128 652 91
128 652 130
128 653 89
128 653 90
128 653 130
128 654 76
128 654 89
128 654 130
128 655 74
128 655 79
128 655 88
128 655 130
128 656 73
128 656 80
128 656 87
128 656 130
128 657 72
128 657 73
128 657 81
128 657 86
128 657 130
128 658 73
128 658 82
128 658 86
128 658 130
128 659 73
128 659 83
128 659 84
128 659 85
128 659 130
128 660 73
128 660 131
128 661 73
128 661 131
128 662 72
128 662 73
128 662 131
128 663 72
128 663 73
128 663 131
128 664 72
128 664 131
128 665 72
128 665 131
128 666 72
128 666 131
128 667 72
128 667 131
128 668 72
128 668 131
128 669 71
128 669 72
128 669 132
128 670 72
128 670 132
128 671 71
128 671 72
128 671 132
128 672 71
128 672 72
128 672 132
128 673 71
128 673 132
128 674 71
128 674 132
128 675 71
128 675 132
128 676 71
128 676 132
128 677 71
128 677 133
128 678 71
128 678 133
128 679 71
128 679 133
128 680 71
128 680 133
128 681 71
128 681 72
128 681 133
128 682 71
128 682 72
128 682 133
128 683 72
128 683 133
128 684 72
128 684 133
128 685 72
128 685 73
128 685 133
128 686 72
128 686 73
128 686 133
128 687 73
128 687 133
128 688 73
128 688 133
128 689 73
128 689 133
128 690 73
128 690 133
128 691 73
128 691 133
128 692 73
128 692 74
128 692 133
128 693 73
128 693 74
128 693 133
128 694 74
128 694 133
128 695 74
128 695 133
128 696 74
128 696 133
128 697 74
128 697 75
128 697 133
128 698 74
128 698 75
128 698 133
128 699 75
128 699 133
128 700 75
128 700 133
128 701 75
128 701 133
128 702 75
128 702 133
128 703 75
128 703 133
128 704 75
128 704 76
128 704 134
128 705 75
128 705 76
128 705 134
128 706 76
128 707 76
128 708 76
128 709 76
128 710 76
128 710 135
128 711 76
128 711 135
128 712 76
128 712 135
128 713 76
128 713 135
128 714 76
128 714 135
128 715 76
128 715 135
128 715 136
128 716 76
128 716 135
128 716 136
128 717 76
128 717 135
128 717 136
128 717 137
128 718 76
128 718 136
128 718 137
128 719 76
128 719 137
128 719 138
128 720 76
128 720 138
128 721 76
128 721 77
128 721 138
128 722 76
128 722 77
128 723 77
128 724 77
128 724 78
128 725 77
128 725 78
128 725 139
128 726 78
128 726 139
128 727 78
128 727 79
128 727 139
128 728 78
128 728 79
128 728 139
128 729 79
128 729 80
128 730 79
128 730 80
128 731 80
128 732 80
128 732 81
128 733 80
128 733 81
128 734 81
128 734 82
128 735 81
128 735 82
128 736 82
128 737 82
128 737 83
128 738 83
128 738 139
128 739 83
128 739 84
128 739 139
128 740 83
128 740 84
128 740 139
128 741 84
128 741 139
128 742 84
128 742 139
128 743 84
128 743 85
128 743 139
128 744 84
128 744 85
128 744 139
128 745 85
128 745 139
128 746 85
128 746 139
128 746 140
128 747 85
128 747 139
128 747 140
128 747 141
128 748 85
128 748 86
128 748 140
128 748 141
128 749 85
128 749 86
128 749 140
128 749 141
128 750 86
128 750 140
128 750 141
128 751 86
128 751 87
128 751 141
128 751 142
128 752 86
128 752 87
128 752 141
128 752 142
128 753 87
128 753 142
128 754 87
128 754 142
128 754 143
128 755 87
128 755 88
128 755 142
128 755 143
128 756 87
128 756 88
128 756 142
128 756 143
128 757 88
128 757 143
128 758 88
128 758 143
128 758 144
128 759 88
128 759 89
128 759 143
128 760 88
128 760 89
128 760 143
128 760 144
128 761 89
128 761 143
128 761 144
128 762 89
128 762 144
128 763 89
128 763 90
128 763 144
128 764 89
128 764 90
128 764 144
128 764 145
128 765 90
128 765 144
128 765 145
128 766 90
128 766 91
128 766 145
128 767 90
128 767 91
128 767 145
128 768 91
128 768 145
128 769 91
128 769 92
128 769 145
128 769 146
128 770 91
128 770 92
128 770 146
128 771 92
128 771 146
128 772 92
128 772 93
128 772 146
128 773 92
128 773 93
128 773 146
128 773 147
128 774 93
128 774 146
128 774 147
128 775 93
128 775 146
128 775 147
128 776 93
128 776 94
128 776 147
128 777 93
128 777 94
128 777 147
128 777 148
128 778 94
128 778 95
128 778 148
128 779 94
128 779 95
128 779 148
128 780 94
128 780 95
128 780 148
128 780 149
128 781 95
128 781 148
128 781 149
128 782 95
128 782 96
128 782 148
128 782 149
128 783 96
128 783 97
128 783 148
128 783 149
128 784 97
128 784 148
128 784 149
128 785 97
128 785 98
128 785 148
128 785 149
128 786 98
128 786 99
128 786 148
128 786 149
128 787 99
128 787 148
128 787 149
128 788 99
128 788 100
128 788 148
128 788 149
128 789 100
128 789 101
128 789 148
128 789 149
128 790 101
128 790 148
128 790 149
128 791 101
128 791 102
128 791 148
128 791 149
128 792 102
128 792 148
128 792 149
128 793 103
128 793 148
128 793 149
128 794 103
128 794 104
128 794 148
128 794 149
128 795 104
128 795 149
128 796 104
128 796 105
128 796 149
128 796 150
128 797 105
128 797 149
128 797 150
128 798 105
128 798 106
128 798 149
128 798 150
128 799 106
128 799 149
128 799 150
128 800 106
128 800 107
128 800 149
128 800 150
128 801 106
128 801 107
128 801 149
128 801 150
128 802 107
128 802 108
128 802 149
128 802 150
128 802 151
128 803 107
128 803 108
128 803 109
128 803 149
128 803 150
128 803 151
128 804 107
128 804 108
128 804 149
128 804 150
128 804 151
128 805 108
128 805 109
128 805 110
128 805 111
128 805 149
128 805 150
128 805 151
128 806 109
128 806 110
128 806 111
128 806 150
128 806 151
128 807 109
128 807 110
128 807 111
128 807 112
128 807 150
128 807 151
128 808 110
128 808 111
128 808 112
128 808 113
128 808 150
128 808 151
128 809 112
128 809 113
128 809 114
128 809 115
128 809 149
128 809 150
128 809 151
128 809 152
128 810 114
128 810 115
128 810 149
128 810 150
128 810 151
128 810 152
128 811 115
128 811 116
128 811 117
128 811 148
128 811 149
128 811 150
128 811 151
128 812 116
128 812 117
128 812 118
128 812 119
128 812 148
128 812 149
128 812 150
128 812 151
128 813 118
128 813 119
128 813 148
128 813 149
128 813 150
128 814 118
128 814 119
128 814 120
128 814 148
128 814 149
128 814 150
128 815 120
128 815 148
128 815 149
128 815 150
128 816 121
128 816 147
128 816 148
128 817 121
128 817 146
128 817 147
128 818 121
128 818 122
128 818 145
128 818 146
128 819 122
128 819 123
128 819 143
128 819 144
128 819 145
128 820 123
128 820 124
128 820 141
128 820 142
128 820 143
128 821 124
128 821 125
128 821 139
128 821 140
128 821 141
128 821 142
128 822 125
128 822 126
128 822 127
128 822 128
128 822 129
128 822 130
128 822 131
128 822 132
128 822 133
128 822 134
128 822 135
128 822 136
128 822 137
128 822 138
128 822 139
128 823 127
128 823 129
128 823 130
128 823 131
128 823 132
128 823 133
128 823 134
128 823 135
129 478 107
129 478 110
129 479 107
129 479 112
129 480 108
129 480 114
129 481 106
129 481 107
129 481 116
129 482 107
129 482 118
129 483 107
129 483 120
129 484 107
129 484 122
129 484 123
129 484 124
129 485 125
129 485 126
129 486 125
129 486 126
129 486 127
129 487 125
129 487 126
129 488 107
129 488 124
129 488 125
129 489 124
129 489 125
129 490 108
129 490 124
129 490 125
129 491 109
129 491 124
129 492 109
129 492 124
129 493 124
129 494 107
129 494 108
129 494 124
129 495 107
129 495 124
129 496 106
129 496 107
129 497 106
129 497 107
129 498 106
129 498 107
129 499 106
129 499 107
129 499 125
129 500 106
129 500 107
129 500 125
129 501 106
129 501 107
129 502 106
129 502 107
129 502 126
129 503 106
129 503 107
129 503 127
129 503 128
129 504 106
129 504 107
129 504 127
129 505 106
129 505 107
129 506 106
129 506 107
129 507 106
129 507 107
129 508 106
129 508 107
129 509 106
129 509 107
129 510 106
129 510 107
129 510 125
129 511 106
129 511 107
129 512 106
129 512 107
129 512 124
129 513 106
129 513 107
129 514 106
129 514 107
129 514 127
129 514 129
129 515 106
129 515 107
129 515 127
129 516 106
129 516 107
129 516 126
129 517 106
129 517 107
129 517 126
129 518 106
129 518 107
129 518 126
129 519 106
129 519 107
129 519 126
129 520 106
129 520 107
129 520 124
129 520 126
129 521 106
129 521 107
129 521 126
129 522 126
129 523 126
129 524 126
129 525 126
129 526 126
129 527 126
129 528 126
129 529 107
129 529 126
129 530 106
129 530 126
129 531 106
129 531 126
129 532 126
129 533 126
129 534 126
129 535 106
129 535 126
129 536 105
129 536 106
129 536 126
129 537 105
129 537 126
129 538 126
129 539 126
129 540 126
129 541 126
129 542 126
129 543 105
129 543 126
129 544 105
129 544 126
129 545 104
129 545 105
129 545 122
129 545 125
129 546 125
129 547 125
129 548 104
129 548 125
129 549 125
129 550 125
129 551 103
129 551 125
129 552 102
129 552 125
129 553 125
129 554 125
129 555 102
129 555 125
129 556 125
129 557 125
129 558 101
129 558 125
129 559 125
129 560 125
129 561 125
129 562 100
129 562 125
129 563 100
129 563 125
129 564 125
129 565 125
129 566 125
129 567 125
129 568 99
129 568 125
129 569 99
129 569 125
129 570 125
129 571 125
129 572 125
129 573 98
129 573 125
129 574 98
129 574 125
129 575 98
129 575 125
129 576 125
129 577 125
129 578 125
129 579 97
129 579 125
129 580 97
129 580 125
129 581 97
129 581 125
129 582 125
129 583 125
129 584 125
129 585 96
129 585 125
129 586 96
129 586 125
129 587 96
129 587 125
129 588 125
129 589 125
129 590 125
129 591 95
129 591 126
129 592 95
129 592 126
129 593 126
129 594 126
129 595 127
129 596 127
129 597 127
129 598 94
129 598 127
129 599 127
129 600 127
129 601 128
129 602 128
129 603 128
129 604 93
129 604 128
129 605 93
129 605 128
129 606 93
129 606 128
129 607 129
129 608 129
129 609 129
129 610 129
129 611 130
129 612 130
129 613 92
129 613 130
129 614 92
129 614 130
129 615 130
129 616 131
129 617 92
129 617 131
129 618 92
129 618 131
129 619 131
129 620 131
129 621 131
129 622 131
129 623 131
129 624 132
129 625 132
129 626 132
129 627 132
129 628 132
129 629 92
129 629 132
129 630 132
129 631 92
129 631 132
129 632 92
129 632 132
129 633 91
129 633 92
129 633 132
129 634 91
129 634 92
129 634 131
129 635 91
129 635 92
129 635 131
129 636 91
129 636 92
129 636 131
129 637 91
129 637 92
129 637 131
129 638 91
129 638 92
129 638 131
129 639 91
129 639 92
129 639 131
129 640 91
129 640 92
129 640 131
129 641 131
129 642 131
129 643 131
129 644 131
129 645 90
129 645 130
129 646 90
129 646 130
129 647 90
129 647 130
129 648 90
129 648 130
129 649 90
129 649 130
129 650 90
129 650 130
129 651 91
129 651 130
129 652 89
129 652 90
129 652 130
129 653 88
129 653 89
129 653 130
129 654 75
129 654 76
129 654 77
129 654 78
129 654 88
129 654 130
129 655 73
129 655 80
129 655 87
129 655 130
129 656 72
129 656 73
129 656 81
129 656 86
129 656 130
129 657 73
129 657 82
129 657 83
129 657 85
129 657 130
129 658 73
129 658 83
129 658 84
129 658 85
129 658 130
129 659 73
129 659 130
129 660 73
129 660 131
129 661 72
129 661 73
129 661 131
129 662 72
129 662 73
129 662 131
129 663 72
129 663 131
129 664 72
129 664 131
129 665 72
129 665 131
129 666 72
129 666 131
129 667 72
129 667 131
129 668 71
129 668 72
129 668 132
129 669 72
129 669 132
129 670 71
129 670 72
129 670 132
129 671 71
129 671 72
129 671 132
129 672 71
129 672 132
129 673 71
129 673 132
129 674 71
129 674 132
129 675 71
129 675 132
129 676 71
129 676 133
129 677 71
129 677 133
129 678 71
129 678 133
129 679 71
129 679 133
129 680 71
129 680 133
129 681 71
129 681 72
129 681 133
129 682 71
129 682 72
129 682 133
129 683 72
129 683 133
129 684 72
129 684 134
129 685 72
129 685 73
129 685 134
129 686 72
129 686 73
129 686 134
129 687 73
129 687 134
129 688 73
129 688 133
129 689 73
129 689 133
129 690 73
129 690 133
129 691 73
129 691 133
129 692 73
129 692 133
129 693 73
129 693 74
129 693 133
129 694 73
129 694 74
129 694 133
129 695 74
129 695 133
129 696 74
129 696 133
129 697 74
129 697 133
129 698 74
129 698 75
129 698 133
129 699 74
129 699 75
129 699 134
129 700 75
129 700 134
129 701 75
129 701 134
129 702 75
129 702 134
129 703 75
129 703 134
129 704 75
129 704 134
129 705 75
129 705 76
129 705 134
129 706 75
129 706 76
129 707 76
129 708 76
129 709 76
129 709 136
129 709 137
129 710 76
129 710 136
129 711 76
129 711 136
129 712 76
129 712 136
129 713 76
129 713 136
129 714 76
129 714 136
129 714 137
129 715 76
129 715 137
129 716 76
129 716 137
129 717 76
129 717 137
129 717 138
129 718 76
129 718 137
129 718 138
129 719 76
129 719 138
129 720 76
129 721 76
129 721 77
129 722 76
129 722 77
129 723 77
129 723 139
129 724 77
129 724 78
129 724 139
129 725 77
129 725 78
129 725 139
129 726 78
129 726 79
129 726 139
129 727 78
129 727 79
129 728 79
129 729 79
129 729 80
129 730 79
129 730 80
129 731 80
129 732 80
129 732 81
129 733 81
129 734 81
129 734 82
129 735 81
129 735 82
129 736 82
129 737 82
129 737 83
129 738 83
129 738 140
129 739 83
129 740 83
129 740 84
129 740 140
129 741 83
129 741 84
129 741 140
129 742 84
129 742 140
129 743 84
129 743 85
129 743 140
129 744 84
129 744 85
129 744 140
129 745 85
129 745 140
129 745 141
129 746 85
129 746 140
129 746 141
129 746 142
129 747 85
129 747 141
129 747 142
129 748 85
129 748 86
129 748 141
129 748 142
129 748 143
129 749 85
129 749 86
129 749 142
129 749 143
129 750 86
129 750 142
129 750 143
129 751 86
129 751 142
129 751 143
129 752 86
129 752 87
129 752 143
129 753 86
129 753 87
129 753 143
129 754 87
129 754 143
129 754 144
129 755 87
129 755 88
129 755 144
129 756 87
129 756 88
129 756 144
129 757 88
129 757 144
129 758 88
129 758 144
129 758 145
129 759 88
129 759 144
129 759 145
129 760 88
129 760 89
129 760 145
129 761 88
129 761 89
129 761 145
129 762 89
129 762 145
129 763 89
129 763 90
129 763 145
129 763 146
129 764 89
129 764 90
129 764 145
129 764 146
129 765 90
129 765 146
129 766 90
129 766 91
129 766 146
129 767 90
129 767 91
129 767 146
129 768 91
129 768 146
129 768 147
129 769 91
129 769 146
129 769 147
129 770 91
129 770 147
129 771 91
129 771 92
129 771 147
129 772 91
129 772 92
129 772 147
129 772 148
129 773 92
129 773 147
129 773 148
129 774 92
129 774 93
129 774 148
129 775 92
129 775 93
129 775 148
129 776 93
129 776 148
129 776 149
129 777 93
129 777 94
129 777 149
129 777 150
129 778 93
129 778 94
129 778 149
129 778 150
129 779 94
129 779 149
129 779 150
129 780 94
129 780 95
129 780 149
129 780 150
129 781 94
129 781 95
129 781 149
129 781 150
129 782 95
129 782 96
129 782 149
129 782 150
129 783 96
129 783 149
129 783 150
129 784 96
129 784 97
129 784 149
129 784 150
129 785 97
129 785 98
129 785 149
129 785 150
129 786 98
129 786 149
129 786 150
129 787 98
129 787 99
129 787 150
129 788 99
129 788 100
129 788 150
129 789 100
129 789 149
129 789 150
129 790 100
129 790 101
129 790 149
129 790 150
129 791 101
129 791 102
129 791 150
129 791 151
129 792 101
129 792 102
129 792 150
129 792 151
129 793 102
129 793 103
129 793 150
129 793 151
129 794 103
129 794 104
129 794 150
129 794 151
129 795 103
129 795 104
129 795 150
129 795 151
129 796 104
129 796 105
129 796 150
129 796 151
129 797 104
129 797 105
129 797 151
129 798 105
129 798 151
129 798 152
129 799 105
129 799 106
129 799 151
129 799 152
129 800 105
129 800 106
129 800 151
129 800 152
129 801 106
129 801 107
129 801 151
129 801 152
129 802 106
129 802 107
129 802 151
129 802 152
129 803 107
129 803 151
129 803 152
129 804 107
129 804 108
129 804 151
129 804 152
129 805 108
129 805 152
129 806 108
129 806 109
129 806 152
129 807 108
129 807 109
129 807 110
129 807 152
129 808 109
129 808 110
129 808 111
129 808 112
129 808 152
129 808 153
129 809 110
129 809 111
129 809 112
129 809 113
129 809 152
129 809 153
129 810 110
129 810 112
129 810 113
129 810 114
129 810 152
129 810 153
129 811 113
129 811 114
129 811 115
129 811 151
129 811 152
129 811 153
129 812 114
129 812 115
129 812 116
129 812 151
129 812 152
129 813 116
129 813 117
129 813 151
129 813 152
129 814 117
129 814 118
129 814 151
129 814 152
129 815 118
129 815 119
129 815 151
129 815 152
129 816 120
129 816 149
129 816 150
129 816 151
129 817 120
129 817 148
129 817 149
129 817 150
129 818 120
129 818 147
129 818 148
129 819 121
129 819 146
129 819 147
129 820 121
129 820 122
129 820 144
129 820 145
129 820 146
129 821 122
129 821 123
129 821 143
129 821 144
129 822 123
129 822 124
129 822 140
129 822 141
129 822 142
129 823 124
129 823 125
129 823 126
129 823 128
129 823 136
129 823 137
129 823 138
129 823 139
129 823 140
129 824 127
129 824 129
129 824 130
129 824 131
129 824 132
129 824 133
129 824 134
129 824 135
130 477 107
130 477 108
130 478 107
130 478 111
130 478 112
130 479 107
130 479 113
130 479 114
130 479 115
130 479 116
130 480 107
130 480 108
130 480 115
130 480 116
130 480 117
130 480 118
130 481 106
130 481 116
130 481 117
130 481 118
130 481 119
130 482 106
130 482 118
130 482 119
130 482 120
130 482 121
130 482 122
130 483 120
130 483 121
130 483 122
130 483 123
130 483 124
130 484 123
130 484 125
130 484 126
130 485 124
130 485 125
130 485 127
130 485 128
130 486 128
130 487 127
130 487 128
130 488 107
130 488 125
130 488 126
130 488 127
130 489 126
130 490 106
130 490 107
130 491 107
130 491 108
130 491 125
130 492 107
130 492 108
130 492 125
130 493 107
130 493 108
130 493 125
130 494 106
130 494 107
130 494 125
130 495 106
130 495 107
130 495 125
130 496 106
130 496 107
130 496 125
130 497 106
130 497 107
130 497 125
130 498 106
130 498 107
130 498 125
130 499 106
130 499 107
130 500 106
130 500 107
130 501 106
130 501 107
130 501 126
130 502 106
130 502 107
130 502 127
130 502 128
130 502 129
130 503 106
130 503 107
130 504 106
130 504 107
130 505 106
130 505 107
130 506 106
130 506 107
130 507 106
130 507 107
130 507 124
130 508 106
130 508 107
130 509 106
130 509 107
130 510 106
130 510 107
130 511 106
130 511 107
130 512 106
130 512 107
130 513 106
130 513 107
130 513 129
130 514 106
130 514 107
130 514 125
130 514 128
130 515 106
130 515 107
130 515 127
130 516 106
130 516 107
130 516 127
130 517 106
130 517 107
130 517 126
130 518 106
130 518 107
130 518 125
130 518 126
130 519 106
130 519 107
130 519 126
130 520 106
130 520 107
130 520 126
130 521 106
130 521 107
130 521 126
130 522 106
130 522 107
130 522 126
130 523 106
130 523 107
130 523 126
130 524 106
130 524 107
130 524 126
130 525 106
130 525 107
130 525 125
130 525 126
130 526 106
130 526 107
130 526 126
130 527 106
130 527 107
130 527 126
130 528 106
130 528 107
130 528 126
130 529 106
130 529 107
130 529 126
130 530 126
130 531 126
130 532 127
130 533 127
130 534 106
130 534 127
130 535 105
130 535 127
130 536 127
130 537 127
130 538 126
130 539 126
130 540 126
130 541 123
130 541 126
130 542 105
130 542 126
130 543 105
130 543 126
130 544 104
130 544 126
130 545 126
130 546 104
130 546 126
130 547 103
130 547 104
130 547 126
130 548 103
130 548 126
130 549 126
130 550 103
130 550 126
130 551 102
130 551 126
130 552 126
130 553 126
130 554 102
130 554 126
130 555 126
130 556 101
130 556 126
130 557 101
130 557 126
130 558 126
130 559 126
130 560 100
130 560 126
130 561 100
130 561 126
130 562 100
130 562 126
130 563 126
130 564 126
130 565 126
130 566 99
130 566 126
130 567 99
130 567 126
130 568 99
130 568 126
130 569 126
130 570 126
130 571 126
130 572 98
130 572 126
130 573 98
130 573 126
130 574 98
130 574 126
130 575 126
130 576 126
130 577 97
130 577 126
130 578 97
130 578 126
130 579 97
130 579 126
130 580 126
130 581 126
130 582 126
130 583 96
130 583 126
130 584 96
130 584 126
130 585 96
130 585 126
130 586 96
130 586 126
130 587 126
130 588 126
130 589 126
130 590 95
130 590 126
130 591 126
130 592 126
130 593 126
130 594 126
130 595 126
130 596 94
130 596 127
130 597 94
130 597 127
130 598 127
130 599 127
130 600 127
130 601 127
130 602 93
130 602 127
130 603 93
130 603 128
130 604 93
130 604 128
130 605 128
130 606 128
130 607 128
130 608 129
130 609 129
130 610 129
130 611 129
130 612 92
130 612 129
130 613 130
130 614 92
130 614 130
130 615 92
130 615 130
130 616 92
130 616 130
130 617 130
130 618 131
130 619 131
130 620 131
130 621 131
130 622 131
130 623 92
130 623 131
130 624 91
130 624 92
130 624 131
130 625 91
130 625 92
130 625 131
130 626 91
130 626 92
130 626 131
130 627 91
130 627 92
130 627 132
130 628 91
130 628 92
130 628 132
130 629 91
130 629 132
130 630 91
130 630 92
130 630 131
130 631 91
130 631 131
130 632 91
130 632 131
130 633 131
130 634 131
130 635 131
130 636 131
130 637 131
130 638 131
130 639 90
130 639 131
130 640 90
130 640 131
130 641 90
130 641 131
130 642 90
130 642 130
130 643 90
130 643 130
130 644 90
130 644 130
130 645 91
130 645 130
130 646 91
130 646 130
130 647 91
130 647 130
130 648 91
130 648 130
130 649 91
130 649 130
130 650 89
130 650 91
130 650 130
130 651 89
130 651 90
130 651 130
130 652 88
130 652 89
130 652 130
130 653 88
130 653 129
130 654 74
130 654 75
130 654 78
130 654 79
130 654 80
130 654 87
130 654 129
130 655 72
130 655 81
130 655 82
130 655 86
130 655 129
130 656 73
130 656 82
130 656 83
130 656 84
130 656 85
130 656 130
130 657 73
130 657 84
130 657 130
130 658 73
130 658 130
130 659 72
130 659 73
130 659 130
130 660 73
130 660 130
130 661 72
130 661 131
130 662 72
130 662 73
130 662 131
130 663 72
130 663 131
130 664 72
130 664 131
130 665 72
130 665 131
130 666 72
130 666 131
130 667 72
130 667 131
130 668 72
130 668 131
130 669 72
130 669 132
130 670 71
130 670 72
130 670 132
130 671 71
130 671 132
130 672 71
130 672 132
130 673 71
130 673 132
130 674 71
130 674 132
130 675 71
130 675 132
130 676 71
130 676 133
130 677 71
130 677 133
130 678 71
130 678 133
130 679 71
130 679 133
130 680 71
130 680 133
130 681 71
130 681 133
130 682 71
130 682 72
130 682 133
130 683 71
130 683 72
130 683 133
130 684 72
130 684 134
130 685 72
130 685 134
130 686 72
130 686 134
130 687 72
130 687 73
130 687 134
130 688 72
130 688 73
130 688 134
130 689 73
130 689 134
130 690 73
130 690 134
130 691 73
130 691 133
130 692 73
130 692 133
130 693 73
130 693 133
130 694 73
130 694 74
130 694 133
130 695 73
130 695 74
130 695 133
130 696 74
130 696 134
130 697 74
130 697 134
130 698 74
130 698 134
130 699 74
130 699 134
130 700 74
130 700 75
130 700 134
130 701 74
130 701 75
130 701 134
130 702 75
130 702 134
130 703 75
130 703 135
130 704 75
130 704 135
130 705 75
130 705 135
130 706 75
130 706 76
130 706 135
130 707 75
130 707 76
130 707 135
130 708 76
130 708 135
130 709 76
130 709 135
130 710 76
130 710 135
130 710 137
130 711 76
130 711 136
130 711 137
130 712 76
130 712 136
130 712 137
130 713 76
130 713 136
130 713 137
130 714 76
130 714 137
130 715 76
130 716 76
130 717 76
130 717 138
130 718 76
130 718 138
130 719 76
130 720 76
130 720 77
130 721 76
130 721 77
130 722 77
130 722 139
130 723 77
130 723 78
130 723 139
130 724 77
130 724 78
130 724 139
130 725 78
130 726 78
130 726 79
130 727 78
130 727 79
130 728 79
130 729 79
130 729 80
130 730 80
130 731 80
130 731 81
130 731 140
130 732 81
130 732 140
130 733 81
130 733 140
130 734 81
130 734 82
130 734 140
130 735 82
130 735 140
130 736 82
130 736 83
130 736 140
130 737 82
130 737 83
130 737 140
130 738 83
130 738 140
130 739 83
130 739 84
130 739 140
130 740 83
130 740 84
130 740 140
130 741 84
130 741 140
130 742 84
130 742 140
130 742 141
130 743 84
130 743 140
130 743 141
130 744 84
130 744 85
130 744 140
130 744 141
130 745 85
130 745 141
130 745 142
130 745 143
130 746 85
130 746 142
130 746 143
130 746 144
130 747 85
130 747 142
130 747 143
130 747 144
130 748 85
130 748 86
130 748 143
130 748 144
130 749 85
130 749 86
130 749 143
130 749 144
130 750 86
130 750 143
130 750 144
130 751 86
130 751 144
130 752 86
130 752 87
130 752 144
130 752 145
130 753 86
130 753 87
130 753 144
130 753 145
130 754 87
130 754 145
130 755 87
130 755 88
130 755 145
130 756 87
130 756 88
130 756 145
130 757 88
130 757 145
130 757 146
130 758 88
130 758 145
130 758 146
130 759 88
130 759 146
130 760 88
130 760 89
130 760 146
130 761 88
130 761 89
130 761 146
130 762 89
130 762 146
130 762 147
130 763 89
130 763 90
130 763 146
130 763 147
130 764 89
130 764 90
130 764 147
130 765 90
130 765 147
130 766 90
130 766 147
130 766 148
130 767 90
130 767 91
130 767 147
130 767 148
130 768 90
130 768 91
130 768 147
130 768 148
130 769 91
130 769 148
130 770 91
130 770 148
130 771 91
130 771 92
130 771 148
130 771 149
130 772 91
130 772 92
130 772 148
130 772 149
130 773 92
130 773 149
130 774 92
130 774 149
130 774 150
130 775 92
130 775 93
130 775 149
130 775 150
130 776 92
130 776 93
130 776 150
130 777 93
130 777 94
130 777 150
130 777 151
130 778 93
130 778 94
130 778 151
130 779 93
130 779 94
130 779 151
130 780 94
130 780 95
130 780 150
130 780 151
130 781 94
130 781 95
130 781 150
130 781 151
130 782 95
130 782 150
130 782 151
130 783 95
130 783 96
130 783 150
130 783 151
130 784 96
130 784 97
130 784 151
130 785 97
130 785 150
130 785 151
130 786 97
130 786 98
130 786 151
130 787 98
130 787 99
130 787 151
130 788 99
130 788 151
130 788 152
130 789 99
130 789 100
130 789 151
130 789 152
130 790 100
130 790 101
130 790 151
130 790 152
130 791 101
130 791 151
130 791 152
130 792 101
130 792 102
130 792 151
130 792 152
130 793 102
130 793 103
130 793 151
130 793 152
130 793 153
130 794 103
130 794 152
130 794 153
130 795 103
130 795 104
130 795 152
130 795 153
130 796 104
130 796 152
130 796 153
130 797 104
130 797 105
130 797 152
130 797 153
130 798 104
130 798 105
130 798 152
130 798 153
130 799 105
130 799 152
130 799 153
130 800 105
130 800 106
130 800 152
130 800 153
130 801 105
130 801 106
130 801 153
130 802 106
130 802 107
130 802 153
130 803 106
130 803 107
130 803 153
130 804 107
130 804 153
130 804 154
130 805 107
130 805 108
130 805 153
130 805 154
130 806 108
130 806 153
130 806 154
130 807 108
130 807 109
130 807 153
130 807 154
130 808 108
130 808 109
130 808 153
130 808 154
130 809 109
130 809 110
130 809 111
130 809 153
130 809 154
130 810 109
130 810 110
130 810 111
130 810 112
130 810 153
130 810 154
130 811 110
130 811 111
130 811 112
130 811 113
130 811 114
130 811 153
130 811 154
130 812 112
130 812 113
130 812 114
130 812 115
130 812 153
130 812 154
130 813 115
130 813 153
130 814 115
130 814 116
130 814 153
130 815 116
130 815 117
130 815 153
130 816 118
130 816 119
130 816 152
130 817 118
130 817 119
130 817 151
130 817 152
130 818 118
130 818 119
130 818 149
130 818 150
130 818 151
130 819 120
130 819 148
130 819 149
130 819 150
130 820 120
130 820 147
130 820 148
130 821 121
130 821 145
130 821 146
130 821 147
130 822 121
130 822 122
130 822 143
130 822 144
130 822 145
130 823 122
130 823 123
130 823 141
130 823 142
130 823 143
130 824 123
130 824 124
130 824 125
130 824 126
130 824 128
130 824 136
130 824 137
130 824 138
130 824 139
130 824 140
130 825 124
130 825 125
130 825 126
130 825 127
130 825 128
130 825 129
130 825 130
130 825 131
130 825 132
130 825 133
130 825 134
130 825 135
130 825 136
130 825 137
130 825 138
131 477 107
131 477 108
131 477 109
131 477 110
131 478 106
131 478 112
131 478 113
131 478 114
131 478 115
131 478 116
131 479 115
131 479 116
131 479 117
131 479 118
131 479 119
131 479 120
131 479 121
131 480 105
131 480 106
131 480 107
131 480 117
131 480 118
131 480 119
131 480 120
131 480 121
131 480 122
131 481 105
131 481 119
131 481 120
131 481 121
131 481 122
131 481 123
131 482 106
131 482 121
131 482 122
131 482 123
131 482 124
131 483 106
131 483 122
131 483 123
131 483 125
131 483 126
131 484 106
131 484 124
131 484 125
131 484 127
131 484 128
131 485 126
131 485 127
131 486 126
131 486 127
131 486 128
131 486 129
131 487 126
131 487 127
131 488 126
131 488 128
131 489 107
131 489 125
131 489 127
131 490 106
131 490 107
131 490 125
131 490 126
131 491 106
131 491 107
131 491 125
131 491 126
131 492 106
131 492 107
131 492 108
131 492 125
131 493 106
131 493 107
131 493 125
131 494 106
131 494 107
131 494 125
131 495 106
131 495 107
131 496 106
131 496 107
131 497 106
131 497 107
131 498 106
131 498 107
131 498 126
131 499 106
131 499 107
131 499 126
131 500 106
131 500 107
131 500 126
131 500 130
131 501 106
131 501 107
131 501 127
131 501 128
131 501 129
131 502 106
131 502 107
131 503 106
131 503 107
131 504 106
131 504 107
131 505 106
131 505 107
131 505 126
131 506 106
131 506 107
131 506 129
131 507 106
131 507 107
131 507 129
131 508 106
131 508 107
131 508 124
131 508 129
131 509 106
131 509 107
131 509 129
131 510 106
131 510 107
131 510 129
131 511 106
131 511 107
131 511 124
131 511 125
131 511 128
131 511 129
131 512 106
131 512 107
131 512 128
131 512 129
131 513 106
131 513 107
131 513 125
131 513 128
131 514 106
131 514 107
131 514 128
131 515 106
131 515 107
131 515 127
131 516 106
131 516 107
131 516 126
131 516 127
131 517 106
131 517 107
131 517 127
131 518 106
131 518 107
131 518 127
131 519 106
131 519 107
131 519 127
131 520 106
131 520 107
131 520 127
131 521 106
131 521 107
131 521 127
131 522 106
131 522 107
131 522 127
131 523 106
131 523 107
131 523 127
131 524 106
131 524 107
131 524 127
131 525 106
131 525 107
131 525 127
131 526 106
131 526 107
131 526 127
131 527 106
131 527 107
131 527 127
131 528 106
131 528 107
131 528 127
131 529 106
131 529 107
131 529 127
131 530 127
131 531 125
131 531 127
131 532 127
131 533 106
131 533 127
131 534 105
131 534 127
131 535 127
131 536 127
131 537 127
131 538 127
131 539 105
131 539 127
131 540 105
131 540 127
131 541 105
131 541 127
131 542 104
131 542 127
131 543 104
131 543 127
131 544 127
131 545 127
131 546 103
131 546 127
131 547 127
131 548 127
131 549 127
131 550 102
131 550 127
131 551 127
131 552 127
131 553 127
131 554 127
131 555 101
131 555 127
131 556 127
131 557 127
131 558 127
131 559 100
131 559 126
131 560 100
131 560 126
131 561 126
131 562 126
131 563 126
131 564 126
131 565 99
131 565 126
131 566 99
131 566 126
131 567 99
131 567 126
131 568 126
131 569 126
131 570 126
131 571 98
131 571 126
131 572 98
131 572 126
131 573 126
131 574 126
131 575 126
131 576 97
131 576 126
131 577 97
131 577 126
131 578 97
131 578 126
131 579 126
131 580 126
131 581 126
131 582 96
131 582 126
131 583 96
131 583 126
131 584 96
131 584 126
131 585 126
131 586 126
131 587 126
131 588 95
131 588 126
131 589 95
131 589 126
131 590 126
131 591 126
131 592 126
131 593 126
131 594 126
131 595 94
131 595 126
131 596 126
131 597 126
131 598 126
131 599 127
131 600 127
131 601 93
131 601 127
131 602 93
131 602 127
131 603 127
131 604 127
131 605 128
131 606 128
131 607 128
131 608 128
131 609 128
131 610 92
131 610 129
131 611 92
131 611 129
131 612 92
131 612 129
131 613 92
131 613 129
131 614 129
131 615 130
131 616 130
131 617 130
131 618 130
131 619 130
131 620 130
131 621 92
131 621 131
131 622 92
131 622 131
131 623 91
131 623 131
131 624 131
131 625 131
131 626 131
131 627 131
131 628 131
131 629 131
131 630 131
131 631 131
131 632 131
131 633 131
131 634 131
131 635 90
131 635 131
131 636 90
131 636 131
131 637 90
131 637 91
131 637 130
131 638 90
131 638 91
131 638 130
131 639 91
131 639 130
131 640 91
131 640 130
131 641 91
131 641 130
131 642 91
131 642 130
131 643 91
131 643 130
131 644 89
131 644 91
131 644 130
131 645 89
131 645 130
131 646 89
131 646 130
131 647 89
131 647 90
131 647 130
131 648 89
131 648 90
131 648 130
131 649 89
131 649 90
131 649 130
131 650 88
131 650 90
131 650 129
131 651 88
131 651 89
131 651 129
131 652 88
131 652 129
131 653 75
131 653 76
131 653 87
131 653 129
131 654 73
131 654 74
131 654 81
131 654 86
131 654 129
131 655 83
131 655 84
131 655 85
131 655 129
131 656 73
131 656 129
131 657 73
131 657 130
131 658 73
131 658 130
131 659 73
131 659 130
131 660 72
131 660 73
131 660 130
131 661 72
131 661 73
131 661 130
131 662 72
131 662 131
131 663 72
131 663 131
131 664 72
131 664 131
131 665 72
131 665 131
131 666 72
131 666 131
131 667 72
131 667 131
131 668 72
131 668 131
131 669 71
131 669 72
131 669 131
131 670 71
131 670 132
131 671 71
131 671 132
131 672 71
131 672 132
131 673 71
131 673 132
131 674 71
131 674 132
131 675 71
131 675 132
131 676 71
131 676 133
131 677 71
131 677 133
131 678 71
131 678 133
131 679 71
131 679 133
131 680 71
131 680 133
131 681 71
131 681 133
131 682 71
131 682 72
131 682 134
131 683 71
131 683 72
131 683 134
131 684 72
131 684 134
131 685 72
131 685 134
131 686 72
131 686 134
131 687 72
131 687 134
131 688 72
131 688 73
131 688 134
131 689 72
131 689 73
131 689 134
131 690 73
131 690 134
131 691 73
131 691 134
131 692 73
131 692 134
131 693 73
131 693 134
131 694 73
131 694 134
131 695 73
131 695 74
131 695 134
131 696 73
131 696 74
131 696 134
131 697 74
131 697 134
131 698 74
131 698 134
131 699 74
131 699 134
131 700 74
131 700 134
131 701 74
131 701 75
131 701 134
131 702 74
131 702 75
131 702 135
131 703 75
131 703 135
131 704 75
131 704 135
131 705 75
131 705 135
131 706 75
131 706 135
131 707 75
131 707 76
131 707 136
131 708 75
131 708 76
131 708 136
131 709 76
131 709 136
131 709 138
131 710 76
131 710 136
131 711 76
131 711 136
131 712 76
131 712 136
131 713 76
131 713 136
131 714 76
131 714 138
131 715 76
131 715 138
131 716 76
131 716 138
131 717 76
131 718 76
131 719 76
131 719 77
131 720 77
131 720 139
131 721 77
131 721 139
131 722 77
131 722 78
131 722 139
131 723 77
131 723 78
131 724 78
131 725 78
131 725 79
131 726 78
131 726 79
131 727 79
131 728 79
131 728 80
131 729 79
131 729 80
131 729 140
131 730 80
131 730 81
131 730 140
131 731 80
131 731 81
131 731 140
131 732 81
131 732 140
131 733 81
131 733 82
131 733 140
131 734 82
131 734 140
131 735 82
131 735 140
131 736 82
131 736 83
131 737 83
131 737 141
131 738 83
131 738 141
131 739 83
131 739 84
131 739 141
131 740 84
131 740 141
131 741 84
131 741 141
131 741 142
131 742 84
131 742 85
131 742 141
131 742 142
131 743 84
131 743 85
131 743 141
131 743 142
131 743 143
131 744 85
131 744 141
131 744 142
131 744 143
131 744 144
131 745 85
131 745 142
131 745 143
131 745 144
131 746 85
131 746 143
131 746 144
131 746 145
131 746 146
131 747 85
131 747 144
131 747 145
131 747 146
131 748 85
131 748 86
131 748 144
131 748 145
131 748 146
131 749 86
131 749 145
131 749 146
131 750 86
131 750 145
131 751 86
131 751 145
131 752 86
131 752 87
131 752 145
131 752 146
131 753 86
131 753 87
131 753 146
131 754 87
131 754 146
131 755 87
131 755 146
131 756 87
131 756 88
131 756 146
131 756 147
