ply
format ascii 1.0
comment Created by Open3D
element vertex 4114
property double x
property double y
property double z
end_header
139 721 81
139 722 81
139 723 81
139 723 82
139 723 141
139 724 81
139 724 82
139 724 141
139 725 82
139 725 83
139 726 82
139 726 83
139 726 142
139 727 83
139 727 84
139 727 142
139 728 83
139 728 84
139 728 143
139 729 84
139 729 85
139 729 143
139 730 84
139 730 85
139 730 144
139 731 85
139 731 86
139 731 144
139 732 85
139 732 86
139 732 145
139 733 86
139 733 145
139 734 86
139 734 87
139 734 145
139 734 146
139 735 87
139 735 146
139 735 147
139 736 87
139 736 147
139 737 87
139 737 88
139 737 147
139 737 148
139 738 88
139 738 148
139 738 149
139 739 88
139 739 149
139 739 150
139 740 88
139 740 150
139 740 151
139 741 88
139 741 150
139 741 151
139 741 152
139 742 88
139 742 151
139 742 152
139 743 88
139 743 152
139 743 153
139 744 88
139 744 153
139 744 154
139 745 88
139 745 154
139 745 155
139 746 88
139 746 155
139 746 156
139 747 88
139 747 155
139 747 156
139 747 157
139 748 88
139 748 155
139 748 156
139 748 157
139 748 158
139 749 88
139 749 158
139 749 159
139 750 88
139 750 159
139 751 88
139 751 159
139 751 160
139 752 88
139 752 160
139 753 88
139 753 160
139 754 88
139 754 89
139 754 160
139 755 89
139 755 160
139 755 161
139 756 89
139 756 161
139 757 89
139 757 161
139 758 89
139 758 161
139 759 89
139 759 161
139 760 89
139 760 90
139 760 162
139 761 89
139 761 90
139 761 162
139 762 90
139 762 162
139 763 90
139 763 162
139 764 90
139 764 162
139 765 90
139 765 162
139 765 163
139 766 90
139 766 91
139 766 162
139 766 163
139 767 90
139 767 91
139 767 163
139 768 91
139 768 163
139 769 91
139 769 163
139 770 91
139 770 163
139 771 91
139 771 92
139 772 91
139 772 92
139 772 164
139 773 92
139 773 164
139 774 92
139 774 164
139 775 92
139 775 164
139 776 92
139 776 93
139 776 164
139 777 92
139 777 93
139 777 164
139 778 93
139 778 165
139 779 93
139 779 165
139 780 93
139 780 165
139 781 93
139 781 165
139 782 93
139 782 94
139 782 165
139 783 94
139 783 165
139 784 95
139 784 165
139 785 95
139 785 165
139 786 95
139 786 96
139 786 164
139 786 165
139 787 96
139 787 164
139 787 165
139 788 96
139 788 97
139 788 164
139 789 97
139 789 164
139 790 97
139 790 164
139 791 97
139 791 98
139 791 164
139 792 98
139 792 164
139 792 167
139 793 98
139 793 99
139 793 164
139 793 167
139 794 98
139 794 99
139 794 164
139 794 165
139 795 99
139 795 164
139 795 165
139 795 166
139 796 99
139 796 100
139 796 165
139 796 166
139 797 100
139 797 165
139 797 166
139 798 100
139 798 164
139 798 165
139 798 166
139 799 100
139 799 164
139 799 165
139 800 100
139 800 164
139 801 100
139 801 101
139 801 164
139 802 101
139 802 163
139 803 101
139 803 163
139 804 101
139 804 162
139 805 102
139 805 162
139 806 102
139 806 161
139 807 102
139 807 161
139 808 102
139 808 103
139 808 160
139 809 103
139 809 160
139 810 104
139 810 159
139 811 104
139 811 105
139 811 158
139 812 105
139 812 158
139 813 105
139 813 106
139 813 158
139 814 106
139 814 157
139 815 107
139 815 157
139 816 107
139 816 108
139 816 157
139 817 108
139 817 109
139 817 157
139 818 109
139 818 156
139 819 109
139 819 110
139 819 156
139 820 110
139 820 111
139 820 155
139 821 111
139 821 154
139 821 155
139 822 112
139 822 154
139 823 112
139 823 113
139 823 153
139 823 154
139 824 113
139 824 152
139 824 153
139 825 114
139 825 152
139 826 114
139 826 151
139 827 114
139 827 115
139 827 116
139 827 150
139 827 151
139 828 115
139 828 116
139 828 117
139 828 118
139 828 119
139 828 149
139 828 150
139 829 114
139 829 115
139 829 116
139 829 119
139 829 120
139 829 121
139 829 148
139 829 149
139 830 122
139 830 123
139 830 147
139 830 148
139 831 147
139 832 124
139 832 125
139 832 145
139 832 146
139 832 147
139 833 126
139 833 127
139 833 128
139 833 129
139 833 130
139 833 144
139 833 145
139 833 146
139 833 147
139 834 131
139 834 132
139 834 133
139 834 134
139 834 135
139 834 136
139 834 137
139 834 138
139 834 139
139 834 140
139 834 141
139 834 142
139 834 143
139 834 144
139 834 145
140 471 106
140 471 107
140 471 108
140 471 109
140 471 110
140 471 111
140 472 105
140 472 106
140 472 112
140 472 113
140 472 114
140 473 104
140 473 105
140 473 115
140 473 116
140 474 103
140 474 104
140 474 117
140 474 118
140 474 119
140 474 123
140 474 124
140 475 103
140 475 121
140 475 122
140 475 123
140 475 125
140 476 102
140 477 101
140 477 102
140 477 125
140 477 126
140 477 127
140 478 99
140 478 126
140 478 127
140 478 128
140 479 100
140 479 129
140 479 130
140 480 101
140 480 130
140 480 131
140 481 101
140 481 131
140 481 132
140 482 102
140 482 132
140 482 133
140 483 103
140 483 132
140 483 133
140 484 104
140 484 133
140 486 105
140 486 110
140 486 133
140 487 105
140 487 110
140 488 109
140 488 110
140 488 132
140 489 109
140 489 110
140 490 110
140 491 109
140 491 110
140 491 132
140 492 106
140 492 109
140 492 110
140 493 109
140 493 110
140 494 109
140 494 110
140 495 109
140 495 110
140 495 132
140 496 109
140 497 109
140 498 108
140 498 109
140 499 108
140 499 109
140 500 105
140 500 107
140 500 108
140 501 107
140 502 106
140 502 107
140 502 131
140 503 106
140 503 131
140 504 105
140 504 131
140 505 105
140 505 131
140 506 105
140 506 131
140 507 105
140 507 131
140 508 105
140 508 131
140 509 105
140 509 126
140 509 131
140 510 105
140 510 131
140 511 105
140 511 131
140 512 105
140 512 130
140 513 105
140 513 130
140 514 105
140 514 129
140 515 105
140 515 128
140 516 105
140 516 128
140 517 105
140 517 127
140 518 105
140 518 127
140 519 105
140 519 127
140 520 105
140 520 127
140 521 105
140 521 127
140 522 105
140 522 127
140 523 105
140 523 127
140 524 105
140 524 127
140 525 105
140 525 127
140 526 105
140 526 127
140 527 105
140 527 127
140 528 105
140 528 127
140 529 105
140 529 127
140 530 105
140 530 127
140 531 104
140 531 127
140 532 127
140 533 127
140 534 127
140 535 127
140 536 104
140 536 127
140 537 103
140 537 127
140 538 127
140 539 126
140 540 126
140 541 126
140 542 103
140 542 126
140 543 102
140 543 126
140 544 126
140 545 126
140 546 102
140 546 126
140 547 101
140 547 126
140 548 126
140 549 101
140 549 126
140 550 100
140 550 101
140 550 126
140 551 126
140 552 126
140 553 100
140 553 126
140 554 99
140 554 126
140 555 99
140 555 126
140 556 98
140 556 126
140 557 126
140 558 97
140 558 98
140 558 126
140 559 97
140 559 126
140 560 97
140 560 126
140 561 97
140 561 126
140 562 97
140 562 126
140 563 96
140 563 97
140 563 126
140 564 96
140 564 97
140 564 126
140 565 96
140 565 126
140 566 96
140 566 126
140 567 96
140 567 126
140 568 96
140 568 126
140 569 96
140 569 126
140 570 95
140 570 126
140 571 95
140 571 126
140 572 95
140 572 126
140 573 94
140 573 95
140 573 126
140 574 94
140 574 126
140 575 94
140 575 126
140 576 93
140 576 94
140 576 126
140 577 93
140 577 126
140 578 93
140 578 126
140 579 93
140 579 126
140 580 93
140 580 126
140 581 93
140 581 126
140 582 93
140 582 126
140 583 93
140 583 126
140 584 93
140 584 126
140 585 93
140 585 126
140 586 126
140 587 92
140 587 126
140 588 92
140 588 126
140 589 92
140 589 126
140 590 91
140 590 126
140 591 90
140 591 91
140 591 125
140 592 89
140 592 90
140 592 125
140 593 89
140 593 90
140 593 125
140 594 89
140 594 90
140 594 124
140 595 89
140 595 90
140 595 124
140 596 89
140 596 90
140 596 124
140 597 89
140 597 90
140 597 124
140 598 89
140 598 90
140 598 124
140 599 89
140 599 124
140 600 89
140 600 124
140 601 89
140 601 124
140 602 89
140 602 124
140 603 89
140 603 124
140 604 89
140 604 125
140 605 89
140 605 125
140 606 89
140 606 125
140 607 89
140 607 125
140 608 89
140 608 125
140 609 89
140 609 126
140 610 89
140 610 126
140 611 89
140 611 126
140 612 89
140 612 126
140 613 89
140 613 126
140 614 89
140 614 127
140 615 89
140 615 127
140 616 89
140 616 127
140 617 89
140 617 127
140 618 89
140 618 127
140 619 89
140 619 128
140 620 88
140 620 89
140 620 128
140 621 128
140 622 128
140 623 87
140 623 88
140 623 128
140 624 87
140 624 127
140 625 87
140 625 127
140 626 87
140 626 126
140 627 87
140 627 126
140 628 87
140 628 126
140 629 87
140 629 125
140 630 125
140 631 86
140 631 125
140 632 86
140 632 125
140 633 86
140 633 125
140 634 85
140 634 125
140 635 84
140 635 85
140 635 125
140 636 82
140 636 83
140 636 84
140 636 85
140 636 125
140 637 81
140 637 82
140 637 83
140 637 84
140 637 125
140 638 80
140 638 81
140 638 83
140 638 84
140 638 125
140 639 78
140 639 79
140 639 80
140 639 81
140 639 82
140 639 83
140 639 125
140 640 78
140 640 125
140 641 77
140 641 78
140 641 125
140 642 77
140 642 78
140 642 125
140 643 125
140 644 76
140 644 77
140 644 125
140 645 76
140 645 77
140 645 125
140 646 76
140 646 77
140 646 125
140 647 76
140 647 125
140 648 125
140 649 124
140 650 124
140 651 75
140 651 124
140 652 70
140 652 72
140 652 74
140 652 124
140 653 73
140 653 124
140 654 75
140 654 124
140 655 75
140 655 124
140 656 75
140 656 124
140 657 75
140 657 124
140 658 75
140 658 124
140 659 75
140 659 124
140 660 75
140 660 124
140 661 74
140 661 75
140 661 124
140 662 74
140 662 75
140 662 124
140 663 74
140 663 125
140 664 74
140 664 125
140 665 74
140 665 125
140 666 73
140 666 74
140 666 125
140 667 73
140 667 74
140 667 125
140 668 73
140 668 74
140 668 126
140 669 73
140 669 126
140 670 73
140 670 126
140 671 73
140 671 127
140 672 72
140 672 73
140 672 127
140 673 72
140 673 73
140 673 127
140 674 72
140 674 73
140 674 128
140 675 72
140 675 128
140 676 72
140 676 128
140 677 72
140 677 128
140 678 72
140 678 129
140 679 72
140 679 73
140 679 129
140 680 72
140 680 73
140 680 129
140 681 73
140 681 129
140 682 73
140 682 130
140 683 73
140 683 74
140 683 130
140 684 74
140 684 130
140 685 74
140 685 130
140 686 74
140 686 130
140 687 74
140 687 75
140 687 131
140 688 75
140 688 131
140 689 75
140 689 132
140 690 75
140 690 132
140 691 75
140 691 133
140 692 75
140 692 133
140 693 75
140 693 134
140 694 75
140 694 134
140 695 76
140 695 134
140 696 76
140 696 134
140 697 76
140 697 135
140 698 76
140 698 135
140 699 76
140 699 135
140 700 76
140 700 77
140 700 135
140 701 77
140 701 136
140 702 77
140 702 136
140 703 77
140 703 136
140 704 77
140 704 137
140 705 77
140 705 78
140 705 137
140 706 78
140 706 137
140 707 78
140 707 138
140 708 78
140 708 138
140 709 78
140 709 138
140 710 78
140 710 138
140 711 78
140 711 139
140 712 78
140 712 79
140 712 139
140 713 78
140 713 79
140 713 139
140 714 79
140 714 139
140 715 79
140 715 139
140 716 79
140 716 80
140 716 140
140 717 80
140 717 140
140 718 80
140 718 140
140 719 80
140 719 81
140 720 81
140 721 81
140 721 82
140 722 81
140 722 82
140 722 141
140 723 82
140 723 141
140 724 82
140 724 83
140 724 142
140 725 83
140 725 84
140 725 142
140 726 83
140 726 84
140 727 84
140 727 85
140 727 143
140 728 84
140 728 85
140 728 143
140 729 85
140 729 144
140 730 85
140 730 86
140 730 144
140 731 86
140 731 87
140 731 145
140 732 86
140 732 87
140 732 145
140 732 146
140 733 87
140 733 146
140 734 87
140 734 146
140 734 147
140 735 87
140 735 88
140 735 147
140 735 148
140 736 88
140 736 148
140 736 149
140 737 88
140 737 148
140 737 149
140 738 88
140 738 89
140 738 149
140 738 150
140 738 151
140 739 88
140 739 89
140 739 150
140 739 151
140 740 89
140 740 151
140 740 152
140 741 89
140 741 152
140 741 153
140 742 89
140 742 152
140 742 153
140 742 154
140 743 89
140 743 153
140 743 154
140 743 155
140 744 88
140 744 89
140 744 154
140 744 155
140 745 88
140 745 89
140 745 155
140 745 156
140 745 157
140 746 88
140 746 89
140 746 156
140 746 157
140 746 158
140 747 88
140 747 89
140 747 158
140 747 159
140 748 88
140 748 159
140 748 160
140 749 88
140 749 160
140 750 88
140 750 89
140 750 160
140 750 161
140 751 88
140 751 89
140 751 161
140 752 89
140 752 161
140 753 89
140 753 161
140 754 89
140 754 161
140 754 162
140 755 89
140 755 162
140 756 89
140 756 162
140 757 89
140 757 162
140 758 89
140 758 162
140 759 89
140 759 162
140 759 163
140 760 89
140 760 90
140 760 163
140 761 90
140 761 163
140 762 90
140 762 163
140 763 90
140 763 163
140 764 90
140 764 163
140 765 90
140 765 91
140 766 90
140 766 91
140 766 164
140 767 91
140 767 164
140 768 91
140 768 164
140 769 91
140 769 164
140 770 91
140 770 164
140 771 91
140 771 92
140 771 164
140 771 165
140 772 91
140 772 92
140 772 165
140 773 92
140 773 165
140 774 92
140 774 165
140 775 92
140 775 165
140 776 92
140 776 93
140 776 165
140 777 92
140 777 93
140 777 165
140 777 166
140 778 93
140 778 166
140 779 93
140 779 166
140 780 93
140 780 166
140 781 93
140 781 166
140 782 93
140 782 166
140 783 94
140 783 166
140 784 94
140 784 95
140 784 166
140 785 95
140 785 166
140 786 95
140 786 166
140 787 96
140 787 166
140 788 96
140 788 165
140 788 166
140 789 96
140 789 97
140 789 165
140 789 166
140 790 97
140 790 165
140 790 166
140 791 97
140 791 165
140 791 166
140 792 97
140 792 98
140 792 165
140 792 166
140 792 168
140 793 98
140 793 165
140 793 166
140 793 167
140 794 98
140 794 165
140 794 166
140 794 167
140 795 98
140 795 99
140 795 166
140 795 167
140 796 99
140 796 166
140 796 167
140 797 99
140 797 166
140 798 99
140 798 165
140 799 99
140 799 165
140 800 99
140 800 165
140 801 100
140 801 164
140 802 100
140 802 163
140 803 100
140 803 163
140 804 100
140 804 162
140 805 101
140 805 162
140 806 101
140 806 161
140 807 101
140 807 161
140 808 102
140 808 160
140 809 102
140 809 160
140 810 103
140 810 159
140 811 103
140 811 159
140 812 103
140 812 104
140 812 159
140 813 104
140 813 158
140 814 104
140 814 105
140 814 158
140 815 105
140 815 106
140 815 157
140 816 106
140 816 107
140 816 157
140 817 107
140 817 108
140 817 157
140 818 108
140 818 156
140 819 109
140 819 156
140 820 109
140 820 110
140 820 155
140 820 156
140 821 110
140 821 111
140 821 155
140 822 111
140 822 112
140 822 154
140 822 155
140 823 112
140 823 113
140 823 153
140 823 154
140 824 113
140 824 153
140 825 114
140 825 152
140 825 153
140 826 114
140 826 151
140 826 152
140 827 113
140 827 115
140 827 150
140 827 151
140 828 113
140 828 115
140 828 116
140 828 117
140 828 149
140 828 150
140 829 115
140 829 116
140 829 117
140 829 118
140 829 119
140 829 148
140 829 149
140 830 117
140 830 120
140 830 121
140 830 147
140 830 148
140 831 118
140 831 122
140 831 123
140 831 147
140 832 124
140 832 125
140 832 146
140 832 147
140 833 126
140 833 127
140 833 128
140 833 129
140 833 145
140 833 146
140 833 147
140 834 130
140 834 131
140 834 132
140 834 133
140 834 134
140 834 135
140 834 136
140 834 137
140 834 138
140 834 139
140 834 140
140 834 141
140 834 142
140 834 143
140 834 144
140 834 145
140 834 146
140 835 145
140 835 146
141 470 108
141 470 109
141 470 110
141 470 111
141 471 105
141 471 106
141 471 107
141 471 111
141 471 112
141 471 113
141 471 114
141 472 104
141 472 114
141 472 115
141 472 116
141 473 103
141 473 104
141 473 116
141 473 117
141 473 118
141 473 123
141 473 124
141 474 102
141 474 103
141 474 119
141 474 120
141 474 121
141 474 122
141 474 123
141 474 125
141 475 102
141 475 124
141 476 102
141 476 125
141 476 126
141 477 99
141 477 100
141 477 101
141 477 128
141 478 98
141 478 99
141 478 129
141 479 99
141 480 100
141 480 132
141 481 101
141 481 132
141 481 133
141 483 133
141 484 133
141 485 133
141 486 111
141 486 133
141 487 105
141 487 110
141 487 111
141 487 133
141 488 110
141 488 111
141 489 110
141 489 132
141 490 110
141 490 111
141 490 132
141 491 110
141 492 109
141 492 110
141 492 133
141 493 109
141 493 110
141 493 133
141 494 109
141 494 110
141 495 109
141 496 108
141 496 109
141 496 132
141 497 108
141 497 109
141 497 132
141 498 108
141 498 109
141 499 105
141 499 107
141 499 108
141 500 107
141 500 108
141 501 106
141 501 107
141 502 107
141 502 131
141 503 106
141 503 131
141 504 105
141 504 131
141 505 105
141 505 131
141 506 105
141 506 131
141 507 105
141 507 131
141 508 105
141 508 131
141 509 105
141 509 131
141 510 105
141 510 131
141 511 105
141 511 131
141 512 105
141 512 131
141 513 105
141 513 130
141 514 105
141 514 129
141 515 105
141 515 129
141 516 105
141 516 128
141 517 105
141 517 127
141 518 105
141 518 127
141 519 105
141 519 127
141 520 105
141 520 127
141 521 105
141 521 127
141 522 105
141 522 127
141 523 105
141 523 127
141 524 105
141 524 127
141 525 105
141 525 127
141 526 105
141 526 127
141 527 105
141 527 127
141 528 105
141 528 127
141 529 105
141 529 127
141 530 104
141 530 127
141 531 127
141 532 126
141 533 126
141 534 126
141 535 104
141 535 126
141 536 103
141 536 126
141 537 126
141 538 126
141 539 126
141 540 126
141 541 103
141 541 126
141 542 102
141 542 126
141 543 126
141 544 126
141 545 102
141 545 126
141 546 101
141 546 126
141 547 126
141 548 126
141 549 100
141 549 126
141 550 126
141 551 100
141 551 126
141 552 99
141 552 100
141 552 125
141 553 99
141 553 125
141 554 99
141 554 125
141 555 98
141 555 125
141 556 98
141 556 125
141 557 97
141 557 98
141 557 125
141 558 96
141 558 97
141 558 125
141 559 96
141 559 97
141 559 125
141 560 96
141 560 97
141 560 125
141 561 95
141 561 96
141 561 125
141 562 95
141 562 96
141 562 125
141 563 95
141 563 96
141 563 125
141 564 95
141 564 96
141 564 125
141 565 95
141 565 96
141 565 125
141 566 95
141 566 96
141 566 125
141 567 95
141 567 96
141 567 125
141 568 95
141 568 125
141 569 95
141 569 125
141 570 94
141 570 95
141 570 125
141 571 94
141 571 95
141 571 125
141 572 94
141 572 125
141 573 93
141 573 94
141 573 125
141 574 93
141 574 94
141 574 125
141 575 93
141 575 125
141 576 125
141 577 93
141 577 125
141 578 93
141 578 125
141 579 93
141 579 125
141 580 93
141 580 125
141 581 93
141 581 125
141 582 92
141 582 125
141 583 92
141 583 125
141 584 92
141 584 125
141 585 92
141 585 125
141 586 92
141 586 125
141 587 92
141 587 125
141 588 92
141 588 125
141 589 90
141 589 91
141 589 125
141 590 89
141 590 90
141 590 91
141 590 125
141 591 89
141 591 90
141 591 125
141 592 89
141 592 125
141 593 89
141 593 124
141 594 89
141 594 124
141 595 89
141 595 124
141 596 89
141 596 124
141 597 89
141 597 124
141 598 89
141 598 124
141 599 89
141 599 124
141 600 89
141 600 124
141 601 89
141 601 124
141 602 89
141 602 124
141 603 89
141 603 124
141 604 89
141 604 125
141 605 89
141 605 125
141 606 89
141 606 125
141 607 89
141 607 125
141 608 89
141 608 125
141 609 89
141 609 126
141 610 89
141 610 126
141 611 89
141 611 126
141 612 89
141 612 126
141 613 89
141 613 126
141 614 89
141 614 127
141 615 89
141 615 127
141 616 89
141 616 127
141 617 89
141 617 127
141 618 88
141 618 127
141 619 88
141 619 127
141 620 88
141 620 128
141 621 87
141 621 88
141 621 128
141 622 87
141 622 88
141 622 128
141 623 87
141 623 127
141 624 87
141 624 127
141 625 87
141 625 127
141 626 126
141 627 126
141 628 86
141 628 125
141 629 86
141 629 125
141 630 86
141 630 125
141 631 85
141 631 86
141 631 125
141 632 85
141 632 125
141 633 84
141 633 85
141 633 125
141 634 83
141 634 84
141 634 85
141 634 125
141 635 81
141 635 82
141 635 83
141 635 84
141 635 125
141 636 80
141 636 81
141 636 83
141 636 84
141 636 124
141 637 78
141 637 79
141 637 80
141 637 81
141 637 82
141 637 83
141 637 124
141 638 78
141 638 79
141 638 80
141 638 81
141 638 82
141 638 124
141 639 77
141 639 78
141 639 124
141 640 77
141 640 78
141 640 124
141 641 76
141 641 77
141 641 124
141 642 76
141 642 77
141 642 124
141 643 76
141 643 77
141 643 124
141 644 124
141 645 124
141 646 75
141 646 124
141 647 75
141 647 76
141 647 124
141 648 75
141 648 76
141 648 124
141 649 75
141 649 76
141 649 124
141 650 75
141 650 76
141 650 124
141 651 74
141 651 124
141 652 70
141 652 72
141 652 73
141 652 124
141 653 73
141 653 124
141 654 75
141 654 124
141 655 75
141 655 124
141 656 75
141 656 124
141 657 75
141 657 124
141 658 75
141 658 124
141 659 75
141 659 124
141 660 75
141 660 124
141 661 75
141 661 124
141 662 75
141 662 124
141 663 74
141 663 75
141 663 124
141 664 74
141 664 75
141 664 124
141 665 74
141 665 125
141 666 74
141 666 125
141 667 74
141 667 125
141 668 74
141 668 125
141 669 74
141 669 125
141 670 74
141 670 126
141 671 73
141 671 74
141 671 126
141 672 73
141 672 74
141 672 126
141 673 73
141 673 127
141 674 73
141 674 74
141 674 127
141 675 73
141 675 127
141 676 73
141 676 128
141 677 73
141 677 128
141 678 73
141 678 128
141 679 73
141 679 128
141 680 73
141 680 74
141 680 129
141 681 74
141 681 129
141 682 74
141 682 129
141 683 74
141 683 129
141 684 74
141 684 75
141 684 129
141 685 75
141 685 130
141 686 75
141 686 130
141 687 75
141 687 130
141 688 75
141 688 131
141 689 75
141 689 76
141 689 131
141 690 76
141 690 132
141 691 76
141 691 133
141 692 76
141 692 133
141 693 76
141 693 134
141 694 76
141 694 134
141 695 77
141 695 134
141 696 77
141 696 134
141 697 77
141 697 134
141 698 77
141 698 135
141 699 77
141 699 135
141 700 78
141 700 135
141 701 78
141 701 136
141 702 78
141 702 136
141 703 78
141 703 136
141 704 78
141 704 136
141 705 78
141 705 79
141 705 137
141 706 79
141 706 137
141 707 79
141 707 137
141 708 79
141 708 138
141 709 79
141 709 138
141 710 79
141 710 138
141 711 79
141 711 138
141 712 79
141 712 80
141 712 139
141 713 80
141 713 139
141 714 80
141 714 139
141 715 80
141 715 81
141 715 139
141 716 81
141 716 139
141 717 81
141 717 140
141 718 81
141 718 140
141 719 81
141 719 82
141 720 82
141 721 82
141 721 83
141 721 141
141 722 82
141 722 83
141 722 141
141 723 83
141 723 84
141 723 142
141 724 83
141 724 84
141 724 142
141 725 84
141 725 85
141 725 143
141 726 84
141 726 85
141 726 143
141 727 85
141 727 86
141 727 144
141 728 85
141 728 86
141 728 144
141 729 86
141 729 144
141 729 145
141 730 86
141 730 87
141 730 145
141 731 87
141 731 146
141 732 87
141 732 88
141 732 146
141 733 88
141 733 146
141 733 147
141 734 88
141 734 147
141 734 148
141 735 88
141 735 148
141 735 149
141 736 88
141 736 89
141 736 149
141 736 150
141 737 89
141 737 149
141 737 150
141 737 151
141 738 89
141 738 150
141 738 151
141 738 152
141 739 89
141 739 151
141 739 152
141 739 153
141 740 89
141 740 152
141 740 153
141 740 154
141 741 89
141 741 153
141 741 154
141 741 155
141 741 156
141 741 157
141 742 89
141 742 154
141 742 155
141 742 156
141 742 157
141 742 158
141 743 89
141 743 155
141 743 156
141 743 157
141 743 158
141 744 89
141 744 156
141 744 157
141 744 158
141 745 89
141 745 158
141 745 159
141 746 89
141 746 159
141 746 160
141 747 89
141 747 160
141 747 161
141 748 89
141 748 161
141 749 89
141 749 161
141 749 162
141 750 89
141 750 162
141 751 89
141 751 162
141 752 89
141 752 162
141 753 89
141 753 162
141 753 163
141 754 89
141 754 90
141 754 163
141 755 90
141 755 163
141 756 89
141 756 90
141 756 163
141 757 90
141 757 163
141 758 90
141 758 163
141 759 90
141 760 90
141 760 164
141 761 90
141 761 164
141 762 90
141 762 164
141 763 90
141 763 164
141 764 90
141 764 91
141 764 164
141 765 91
141 765 164
141 765 165
141 766 91
141 766 165
141 767 91
141 767 165
141 768 91
141 768 165
141 769 91
141 769 92
141 769 165
141 770 91
141 770 92
141 770 165
141 770 166
141 771 92
141 771 166
141 772 92
141 772 166
141 773 92
141 773 166
141 774 92
141 774 166
141 775 92
141 775 166
141 776 92
141 776 93
141 776 166
141 776 167
141 777 92
141 777 93
141 777 167
141 778 93
141 778 167
141 778 168
141 779 93
141 779 167
141 779 168
141 780 93
141 780 167
141 780 168
141 781 93
141 781 167
141 781 168
141 782 93
141 782 167
141 782 168
141 783 94
141 783 167
141 783 168
141 784 94
141 784 167
141 784 168
141 785 94
141 785 167
141 785 168
141 786 95
141 786 167
141 786 168
141 787 95
141 787 167
141 787 168
141 788 96
141 788 167
141 788 168
141 789 96
141 789 167
141 789 168
141 790 96
141 790 167
141 790 168
141 791 96
141 791 167
141 791 168
141 792 97
141 792 167
141 792 168
141 793 97
141 793 167
141 793 168
141 794 97
141 794 167
141 795 98
141 795 167
141 796 98
141 796 167
141 797 98
141 797 166
141 798 98
141 798 166
141 799 98
141 799 165
141 800 98
141 800 165
141 801 99
141 801 164
141 802 99
141 802 164
141 803 99
141 803 163
141 804 99
141 804 163
141 805 100
141 805 162
141 806 100
141 806 162
141 807 100
141 807 161
141 808 100
141 808 161
141 809 101
141 809 160
141 810 102
141 810 160
141 811 102
141 811 103
141 811 159
141 812 103
141 812 159
141 813 103
141 813 104
141 813 158
141 814 104
141 814 158
141 815 104
141 815 105
141 815 158
141 816 105
141 816 106
141 816 158
141 817 106
141 817 107
141 817 157
141 818 107
141 818 157
141 819 108
141 819 156
141 820 108
141 820 109
141 820 155
141 820 156
141 821 109
141 821 110
141 821 155
141 822 111
141 822 154
141 822 155
141 823 111
141 823 112
141 823 153
141 823 154
141 824 112
141 824 113
141 824 153
141 825 113
141 825 114
141 825 152
141 825 153
141 826 114
141 826 115
141 826 151
141 826 152
141 827 115
141 827 116
141 827 150
141 827 151
141 828 115
141 828 116
141 828 117
141 828 149
141 828 150
141 829 116
141 829 117
141 829 118
141 829 119
141 829 149
141 830 116
141 830 117
141 830 120
141 830 121
141 830 148
141 831 118
141 831 122
141 831 123
141 831 147
141 832 124
141 832 146
141 832 147
141 833 125
141 833 126
141 833 127
141 833 146
141 833 147
141 834 128
141 834 129
141 834 130
141 834 131
141 834 132
141 834 133
141 834 134
141 834 141
141 834 142
141 834 143
141 834 144
141 834 145
141 834 146
141 835 135
141 835 136
141 835 137
141 835 138
141 835 139
141 835 140
141 835 145
141 835 146
142 469 108
142 469 109
142 469 110
142 469 111
142 469 112
142 470 106
142 470 107
142 470 108
142 470 109
142 470 110
142 470 111
142 470 112
142 470 113
142 470 114
142 471 105
142 471 113
142 471 114
142 471 115
142 471 116
142 471 117
142 472 103
142 472 104
142 472 115
142 472 116
142 472 117
142 472 118
142 472 119
142 472 123
142 473 102
142 473 118
142 473 119
142 473 120
142 473 121
142 473 122
142 473 123
142 473 125
142 474 101
142 474 102
142 474 120
142 474 121
142 474 122
142 474 124
142 475 101
142 475 102
142 475 125
142 475 126
142 476 99
142 476 100
142 476 127
142 477 98
142 477 99
142 477 126
142 477 127
142 478 98
142 479 98
142 479 99
142 479 130
142 479 131
142 480 99
142 480 100
142 480 131
142 480 133
142 481 100
142 482 101
142 482 133
142 482 134
142 483 102
142 483 134
142 484 103
142 484 134
142 485 104
142 485 134
142 486 110
142 487 133
142 488 105
142 488 133
142 489 133
142 490 111
142 490 133
142 491 110
142 491 111
142 491 133
142 492 110
142 492 111
142 492 133
142 493 109
142 493 110
142 493 133
142 494 109
142 494 110
142 494 133
142 495 108
142 495 109
142 496 108
142 496 109
142 497 105
142 497 108
142 498 105
142 498 107
142 498 108
142 498 132
142 499 106
142 499 107
142 499 132
142 500 106
142 500 132
142 501 106
142 501 131
142 501 132
142 502 104
142 502 105
142 502 132
142 503 104
142 503 105
142 503 129
142 503 132
142 504 105
142 504 128
142 504 132
142 505 104
142 505 105
142 505 127
142 505 132
142 506 104
142 506 105
142 506 132
142 507 104
142 507 105
142 507 132
142 508 105
142 508 132
142 509 105
142 509 132
142 510 105
142 510 132
142 511 105
142 511 131
142 512 105
142 512 131
142 513 105
142 513 130
142 514 105
142 514 129
142 515 105
142 515 129
142 516 105
142 516 127
142 516 128
142 517 105
142 517 127
142 518 105
142 518 127
142 519 105
142 519 127
142 520 105
142 520 127
142 521 105
142 521 127
142 522 105
142 522 127
142 523 105
142 523 127
142 524 105
142 524 127
142 525 105
142 525 127
142 526 105
142 526 127
142 527 105
142 527 127
142 528 105
142 528 127
142 529 104
142 529 105
142 529 127
142 530 126
142 531 126
142 532 125
142 532 126
142 533 126
142 534 104
142 534 126
142 535 103
142 535 126
142 536 126
142 537 126
142 538 126
142 539 103
142 539 126
142 540 103
142 540 126
142 541 102
142 541 125
142 542 125
142 543 125
142 544 102
142 544 125
142 545 101
142 545 125
142 546 125
142 547 125
142 548 100
142 548 101
142 548 125
142 549 125
142 550 100
142 550 125
142 551 99
142 551 125
142 552 125
142 553 98
142 553 99
142 553 125
142 554 98
142 554 125
142 555 97
142 555 98
142 555 125
142 556 96
142 556 97
142 556 125
142 557 95
142 557 96
142 557 97
142 557 125
142 558 95
142 558 96
142 558 125
142 559 95
142 559 96
142 559 125
142 560 94
142 560 95
142 560 96
142 560 125
142 561 94
142 561 95
142 561 96
142 561 125
142 562 94
142 562 95
142 562 96
142 562 125
142 563 94
142 563 95
142 563 125
142 564 94
142 564 95
142 564 125
142 565 94
142 565 95
142 565 125
142 566 94
142 566 95
142 566 125
142 567 94
142 567 95
142 567 125
142 568 94
142 568 95
142 568 125
142 569 94
142 569 95
142 569 125
142 570 93
142 570 94
142 570 125
142 571 93
142 571 94
142 571 125
142 572 93
142 572 94
142 572 125
142 573 93
142 573 125
142 574 93
142 574 125
142 575 92
142 575 93
142 575 125
142 576 92
142 576 93
142 576 125
142 577 92
142 577 125
142 578 92
142 578 125
142 579 92
142 579 125
142 580 92
142 580 125
142 581 92
142 581 125
142 582 125
142 583 125
142 584 92
142 584 125
142 585 92
142 585 125
142 586 92
142 586 125
142 587 91
142 587 125
142 588 91
142 588 125
142 589 89
142 589 90
142 589 91
142 589 125
142 590 89
142 590 90
142 590 125
142 591 88
142 591 89
142 591 124
142 592 88
142 592 124
142 593 88
142 593 124
142 594 88
142 594 124
142 595 88
142 595 124
142 596 88
142 596 124
142 597 88
142 597 124
142 598 88
142 598 124
142 599 88
142 599 124
142 600 88
142 600 124
142 601 88
142 601 124
142 602 88
142 602 124
142 603 88
142 603 124
142 604 88
142 604 125
142 605 88
142 605 125
142 606 88
142 606 125
142 607 88
142 607 125
142 608 88
142 608 125
142 609 88
142 609 126
142 610 88
142 610 126
142 611 88
142 611 126
142 612 88
142 612 126
142 613 88
142 613 126
142 614 88
142 614 127
142 615 88
142 615 127
142 616 88
142 616 127
142 617 88
142 617 127
142 618 88
142 618 127
142 619 87
142 619 88
142 619 127
142 620 87
142 620 128
142 621 87
142 621 128
142 622 87
142 622 128
142 623 127
142 624 86
142 624 127
142 625 86
142 625 127
142 626 86
142 626 126
142 627 86
142 627 125
142 628 85
142 628 86
142 628 125
142 629 85
142 629 125
142 630 85
142 630 124
142 631 84
142 631 85
142 631 124
142 632 83
142 632 84
142 632 124
142 633 82
142 633 83
142 633 84
142 633 124
142 634 81
142 634 82
142 634 84
142 634 124
142 635 78
142 635 79
142 635 80
142 635 81
142 635 82
142 635 83
142 635 124
142 636 77
142 636 78
142 636 79
142 636 80
142 636 81
142 636 82
142 636 124
142 637 77
142 637 78
142 637 124
142 638 77
142 638 78
142 638 124
142 639 76
142 639 77
142 639 124
142 640 76
142 640 77
142 640 124
142 641 124
142 642 75
142 642 124
142 643 75
142 643 76
142 643 124
142 644 75
142 644 76
142 644 124
142 645 75
142 645 76
142 645 124
142 646 76
142 646 124
142 647 124
142 648 124
142 649 124
142 650 124
142 651 74
142 651 124
142 652 70
142 652 71
142 652 72
142 652 73
142 652 124
142 653 73
142 653 74
142 653 124
142 654 75
142 654 124
142 655 75
142 655 123
142 656 75
142 656 123
142 657 75
142 657 123
142 658 75
142 658 123
142 659 75
142 659 123
142 660 75
142 660 123
142 661 75
142 661 123
142 662 75
142 662 123
142 663 75
142 663 124
142 664 75
142 664 124
142 665 75
142 665 124
142 666 74
142 666 75
142 666 124
142 667 74
142 667 75
142 667 124
142 668 74
142 668 125
142 669 74
142 669 75
142 669 125
142 670 74
142 670 125
142 671 74
142 671 125
142 672 74
142 672 126
142 673 74
142 673 126
142 674 74
142 674 126
142 675 74
142 675 127
142 676 74
142 676 127
142 677 74
142 677 127
142 678 74
142 678 128
142 679 74
142 679 128
142 680 74
142 680 75
142 680 128
142 681 75
142 681 128
142 682 75
142 682 129
142 683 75
142 683 129
142 684 75
142 684 129
142 685 75
142 685 76
142 685 129
142 686 76
142 686 130
142 687 76
142 687 130
142 688 76
142 688 130
142 689 76
142 689 131
142 690 76
142 690 132
142 691 76
142 691 77
142 691 132
142 692 77
142 692 133
142 693 77
142 693 133
142 694 77
142 694 134
142 695 77
142 695 134
142 696 78
142 696 134
142 697 78
142 697 134
142 698 78
142 698 135
142 699 78
142 699 135
142 700 78
142 700 79
142 700 135
142 701 78
142 701 79
142 701 135
142 702 79
142 702 136
142 703 79
142 703 136
142 704 79
142 704 136
142 705 79
142 705 80
142 705 137
142 706 80
142 706 137
142 707 80
142 707 137
142 708 80
142 708 137
142 709 80
142 709 138
142 710 80
142 710 138
142 711 81
142 711 138
142 712 81
142 712 138
142 713 81
142 713 139
142 714 81
142 714 139
142 715 81
142 715 82
142 715 139
142 716 82
142 716 139
142 717 82
142 717 140
142 718 82
142 718 140
142 719 82
142 719 83
142 719 139
142 720 83
142 720 139
142 720 141
142 721 83
142 721 140
142 721 141
142 722 83
142 722 84
142 722 142
142 723 84
142 723 142
142 724 84
142 724 85
142 724 143
142 725 85
142 725 143
142 726 85
142 726 86
142 726 144
142 727 86
142 727 144
142 728 86
142 728 87
142 728 145
142 729 87
142 729 145
142 730 87
142 730 88
142 730 146
142 731 87
142 731 88
142 731 146
142 731 147
142 732 88
142 732 147
142 732 148
142 733 88
142 733 89
142 733 147
142 733 148
142 733 149
142 734 88
142 734 89
142 734 148
142 734 149
142 734 150
142 735 89
142 735 149
142 735 150
142 735 151
142 736 89
142 736 150
142 736 151
142 736 152
142 737 89
142 737 151
142 737 152
142 737 153
142 737 156
142 737 157
142 737 158
142 738 89
142 738 152
142 738 153
142 738 154
142 738 155
142 738 156
142 738 157
142 738 158
142 739 89
142 739 153
142 739 154
142 739 155
142 739 156
142 739 157
142 739 158
142 739 159
142 740 89
142 740 153
142 740 154
142 740 155
142 740 156
142 740 157
142 740 158
142 740 159
142 740 160
142 741 89
142 741 155
142 741 156
142 741 157
142 741 158
142 741 159
142 741 160
142 742 89
142 742 156
142 742 159
142 742 160
142 743 89
142 743 159
142 743 160
142 743 161
142 744 89
142 744 159
142 744 160
142 744 161
142 745 89
142 745 160
142 745 161
142 746 89
142 746 161
142 746 162
142 747 89
142 747 162
142 748 89
142 748 162
142 748 163
142 749 89
142 749 163
142 750 89
142 750 90
142 750 163
142 751 90
142 751 163
142 752 90
142 752 163
142 753 90
142 754 90
142 754 164
142 755 90
142 755 164
142 756 90
142 756 164
142 757 90
142 757 164
142 757 165
142 758 90
142 758 164
142 758 165
142 759 90
142 759 164
142 759 165
142 760 90
142 760 91
142 760 165
142 761 90
142 761 91
142 761 165
142 762 91
142 762 165
142 763 91
142 763 165
142 764 91
142 764 165
142 764 166
142 765 91
142 765 166
142 766 91
142 766 166
142 767 91
142 767 166
142 768 91
142 768 92
142 768 166
142 769 91
142 769 92
142 769 166
142 769 167
142 770 92
142 770 167
142 771 92
142 771 167
142 772 92
142 772 167
142 773 92
142 773 167
142 773 168
142 774 92
142 774 167
142 774 168
142 775 92
142 775 167
142 775 168
142 776 92
142 776 93
142 776 168
142 776 169
142 777 92
142 777 93
142 777 168
142 777 169
142 778 93
142 778 169
142 778 170
142 779 93
142 779 169
142 779 170
142 780 93
142 780 169
142 780 170
142 781 93
142 781 169
142 781 170
142 782 93
142 782 169
142 782 170
142 783 93
142 783 169
142 784 94
142 784 169
142 785 94
142 785 169
142 786 95
142 786 169
142 787 95
142 787 169
142 788 95
142 788 169
142 788 170
142 789 96
142 789 169
142 789 170
142 790 96
142 790 169
142 791 96
142 791 169
142 792 97
142 792 168
142 792 169
142 793 97
142 793 168
142 794 97
142 794 168
142 795 97
142 795 167
142 796 97
142 796 167
142 797 98
142 797 167
142 798 98
142 798 166
142 799 98
142 799 166
142 800 98
142 800 165
142 801 98
142 801 165
142 802 98
142 802 164
142 803 99
142 803 163
142 804 99
142 804 163
142 805 99
142 805 162
142 806 99
142 806 162
142 807 100
142 807 161
142 808 100
142 808 161
142 809 101
142 809 160
142 810 101
142 810 160
142 811 102
142 811 159
142 812 102
142 812 103
142 812 159
142 813 103
142 813 159
142 814 103
142 814 104
142 814 158
142 815 104
142 815 105
142 815 158
142 816 105
142 816 158
142 817 105
142 817 106
142 817 157
142 818 106
142 818 107
142 818 157
142 819 107
142 819 108
142 819 156
142 819 157
142 820 108
142 820 109
142 820 156
142 821 109
142 821 110
142 821 155
142 821 156
142 822 110
142 822 111
142 822 154
142 822 155
142 823 111
142 823 112
142 823 153
142 823 154
142 824 112
142 824 113
142 824 153
142 824 154
142 825 113
142 825 152
142 825 153
142 826 114
142 826 151
142 826 152
142 827 114
142 827 115
142 827 150
142 827 151
142 828 115
142 828 116
142 828 149
142 828 150
142 829 115
142 829 116
142 829 117
142 829 118
142 829 149
142 830 116
142 830 117
142 830 119
142 830 120
142 830 148
142 831 121
142 831 122
142 831 147
142 831 148
142 832 123
142 832 124
142 832 146
142 832 147
142 833 125
142 833 126
142 833 146
142 833 147
142 834 127
142 834 128
142 834 129
142 834 130
142 834 131
142 834 143
142 834 144
142 834 145
142 834 146
142 835 132
142 835 133
142 835 134
142 835 135
142 835 136
142 835 137
142 835 138
142 835 139
142 835 140
142 835 141
142 835 142
142 835 145
142 835 146
143 468 108
143 468 109
143 468 110
143 468 111
143 468 112
143 469 107
143 469 108
143 469 109
143 469 110
143 469 111
143 469 112
143 469 113
143 469 114
143 470 105
143 470 106
143 470 113
143 470 114
143 470 115
143 470 116
143 470 117
143 471 104
143 471 115
143 471 116
143 471 117
143 471 118
143 471 119
143 472 102
143 472 103
143 472 118
143 472 119
143 472 120
143 472 121
143 472 122
143 472 123
143 472 124
143 473 101
143 473 102
143 473 120
143 473 121
143 473 124
143 474 100
143 474 101
143 474 125
143 474 126
143 475 99
143 475 100
143 475 101
143 476 98
143 476 99
143 476 100
143 476 101
143 476 126
143 476 128
143 477 96
143 477 97
143 477 98
143 477 128
143 478 96
143 478 97
143 479 96
143 479 97
143 479 98
143 479 131
143 479 132
143 480 98
143 480 99
143 480 132
143 481 100
143 481 133
143 481 134
143 482 110
143 482 111
143 482 112
143 482 113
143 483 102
143 483 106
143 483 107
143 483 108
143 483 109
143 483 110
143 483 111
143 483 112
143 483 113
143 484 103
143 484 107
143 484 108
143 484 109
143 484 110
143 484 111
143 484 112
143 484 113
143 484 134
143 485 104
143 485 108
143 485 109
143 485 110
143 485 111
143 485 112
143 485 113
143 486 134
143 488 105
143 488 133
143 489 105
143 490 111
143 490 112
143 491 111
143 491 133
143 492 110
143 492 111
143 493 110
143 494 109
143 494 110
143 495 108
143 495 109
143 495 133
143 496 105
143 496 108
143 496 109
143 497 107
143 497 108
143 498 107
143 498 132
143 499 106
143 499 132
143 500 106
143 500 132
143 501 105
143 501 106
143 501 132
143 502 104
143 502 105
143 502 130
143 502 132
143 503 104
143 503 105
143 503 132
143 504 104
143 504 132
143 505 104
143 505 132
143 506 104
143 506 132
143 507 104
143 507 132
143 508 104
143 508 132
143 509 104
143 509 132
143 510 104
143 510 132
143 511 104
143 511 131
143 512 104
143 512 131
143 513 104
143 513 130
143 514 104
143 514 129
143 515 104
143 515 129
143 516 104
143 516 128
143 517 104
143 517 127
143 518 104
143 518 127
143 519 104
143 519 127
143 520 104
143 520 127
143 521 104
143 521 127
143 522 104
143 522 127
143 523 104
143 523 127
143 524 104
143 524 127
143 525 104
143 525 127
143 526 104
143 526 127
143 527 104
143 527 105
143 527 127
143 528 104
143 528 127
143 529 104
143 529 127
143 530 126
143 531 126
143 532 104
143 532 126
143 533 104
143 533 126
143 534 103
143 534 126
143 535 125
143 536 125
143 537 125
143 538 103
143 538 125
143 539 102
143 539 125
143 540 102
143 540 125
143 541 125
143 542 125
143 543 102
143 543 125
143 544 101
143 544 125
143 545 125
143 546 125
143 547 100
143 547 101
143 547 125
143 548 125
143 549 99
143 549 100
143 549 125
143 550 99
143 550 125
143 551 98
143 551 99
143 551 124
143 552 98
143 552 99
143 552 124
143 553 97
143 553 98
143 553 124
143 554 96
143 554 97
143 554 124
143 555 95
143 555 96
143 555 97
143 555 124
143 556 95
143 556 96
143 556 124
143 557 94
143 557 95
143 557 96
143 557 124
143 558 94
143 558 95
143 558 124
143 559 93
143 559 94
143 559 95
143 559 124
143 560 92
143 560 93
143 560 95
143 560 124
143 561 92
143 561 93
143 561 94
143 561 124
143 562 92
143 562 93
143 562 94
143 562 124
143 563 92
143 563 93
143 563 94
143 563 124
143 564 92
143 564 93
143 564 94
143 564 124
143 565 92
143 565 93
143 565 94
143 565 124
143 566 92
143 566 93
143 566 94
143 566 123
143 566 124
143 567 92
143 567 93
143 567 94
143 567 123
143 567 124
143 568 92
143 568 93
143 568 94
143 568 123
143 568 124
143 569 92
143 569 93
143 569 94
143 569 124
143 570 92
143 570 93
143 570 124
143 571 92
143 571 93
143 571 124
143 572 92
143 572 93
143 572 124
143 573 92
143 573 124
143 574 92
143 574 124
143 575 124
143 575 125
143 576 92
143 576 124
143 576 125
143 577 91
143 577 92
143 577 124
143 577 125
143 578 91
143 578 92
143 578 125
143 579 91
143 579 92
143 579 125
143 580 91
143 580 92
143 580 125
143 581 91
143 581 92
143 581 125
143 582 91
143 582 92
143 582 124
143 583 91
143 583 92
143 583 124
143 584 91
143 584 124
143 585 91
143 585 124
143 586 91
143 586 124
143 587 90
143 587 91
143 587 124
143 588 89
143 588 90
143 588 124
143 589 88
143 589 89
143 589 124
143 590 87
143 590 88
143 590 124
143 591 77
143 591 78
143 591 87
143 591 88
143 591 124
143 592 77
143 592 78
143 592 87
143 592 124
143 593 77
143 593 78
143 593 87
143 593 124
143 594 77
143 594 78
143 594 87
143 594 124
143 595 77
143 595 78
143 595 87
143 595 124
143 596 77
143 596 78
143 596 87
143 596 124
143 597 77
143 597 78
143 597 87
143 597 124
143 598 77
143 598 78
143 598 87
143 598 124
143 599 77
143 599 78
143 599 87
143 599 124
143 600 77
143 600 78
143 600 87
143 600 124
143 601 77
143 601 78
143 601 87
143 601 124
143 602 77
143 602 78
143 602 87
143 602 124
143 603 77
143 603 78
143 603 87
143 603 124
143 604 77
143 604 78
143 604 87
143 604 124
143 605 77
143 605 78
143 605 87
143 605 124
143 606 77
143 606 78
143 606 87
143 606 124
143 607 77
143 607 78
143 607 87
143 607 125
143 608 77
143 608 78
143 608 87
143 608 125
143 609 77
143 609 78
143 609 87
143 609 125
143 610 77
143 610 78
143 610 87
143 610 126
143 611 77
143 611 78
143 611 87
143 611 126
143 612 77
143 612 78
143 612 87
143 612 126
143 613 77
143 613 78
143 613 87
143 613 126
143 614 77
143 614 78
143 614 87
143 614 127
143 615 77
143 615 78
143 615 87
143 615 127
143 616 77
143 616 78
143 616 87
143 616 127
143 617 77
143 617 78
143 617 87
143 617 127
143 618 87
143 618 127
143 619 87
143 619 127
143 620 86
143 620 128
143 621 86
143 621 128
143 622 86
143 622 128
143 623 86
143 623 127
143 624 85
143 624 127
143 625 85
143 625 126
143 626 85
143 626 126
143 627 85
143 627 125
143 628 85
143 628 125
143 629 84
143 629 85
143 629 124
143 630 83
143 630 84
143 630 124
143 631 82
143 631 83
143 631 84
143 631 124
143 632 81
143 632 82
143 632 84
143 632 124
143 633 79
143 633 80
143 633 81
143 633 82
143 633 83
143 633 124
143 634 77
143 634 78
143 634 79
143 634 80
143 634 81
143 634 82
143 634 83
143 634 124
143 635 77
143 635 78
143 635 124
143 636 76
143 636 78
143 636 124
143 637 76
143 637 77
143 637 124
143 638 76
143 638 77
143 638 124
143 639 75
143 639 123
143 640 75
143 640 123
143 641 75
143 641 76
143 641 123
143 642 76
143 642 123
143 643 123
143 644 74
143 644 123
143 645 74
143 645 123
143 646 74
143 646 75
143 646 123
143 647 74
143 647 75
143 647 123
143 648 74
143 648 75
143 648 123
143 649 74
143 649 75
143 649 123
143 650 74
143 650 75
143 650 123
143 651 73
143 651 123
143 652 69
143 652 71
143 652 72
143 652 123
143 653 72
143 653 73
143 653 123
143 654 74
143 654 122
143 655 74
143 655 122
143 656 74
143 656 122
143 657 74
143 657 122
143 658 74
143 658 122
143 659 74
143 659 75
143 659 122
143 660 74
143 660 123
143 661 75
143 661 123
143 662 74
143 662 75
143 662 123
143 663 75
143 663 123
143 664 74
143 664 75
143 664 123
143 665 75
143 665 123
143 666 74
143 666 75
143 666 123
143 667 75
143 667 124
143 668 75
143 668 124
143 669 74
143 669 75
143 669 124
143 670 74
143 670 75
143 670 125
143 671 75
143 671 125
143 672 75
143 672 125
143 673 74
143 673 75
143 673 126
143 674 75
143 674 126
143 675 75
143 675 126
143 676 75
143 676 126
143 677 75
143 677 127
143 678 75
143 678 127
143 679 75
143 679 127
143 680 75
143 680 128
143 681 75
143 681 76
143 681 128
143 682 76
143 682 128
143 683 76
143 683 128
143 684 76
143 684 129
143 685 76
143 685 77
143 685 129
143 686 77
143 686 129
143 687 77
143 687 129
143 688 77
143 688 130
143 689 77
143 689 130
143 690 77
143 690 131
143 691 77
143 691 132
143 692 77
143 692 78
143 692 132
143 693 77
143 693 78
143 693 133
143 694 78
143 694 133
143 695 78
143 695 133
143 696 78
143 696 134
143 697 79
143 697 134
143 698 79
143 698 134
143 699 79
143 699 134
143 700 79
143 700 135
143 701 80
143 701 135
143 702 80
143 702 135
143 703 80
143 703 135
143 704 80
143 704 136
143 705 81
143 705 136
143 706 81
143 706 136
143 707 81
143 707 137
143 708 81
143 708 137
143 709 81
143 709 137
143 710 81
143 710 82
143 710 138
143 711 82
143 711 138
143 712 82
143 712 138
143 713 82
143 713 138
143 714 82
143 714 139
143 715 82
143 715 83
143 715 139
143 716 83
143 716 139
143 717 83
143 717 139
143 717 140
143 718 83
143 718 139
143 719 83
143 719 84
143 719 139
143 719 141
143 720 84
143 720 139
143 721 84
143 721 140
143 721 142
143 722 84
143 722 85
143 722 142
143 723 85
143 723 143
143 724 85
143 724 86
143 724 143
143 725 86
143 725 144
143 726 86
143 726 87
143 726 144
143 727 86
143 727 87
143 727 143
143 727 145
143 728 87
143 728 144
143 728 145
143 728 146
143 729 87
143 729 88
143 729 143
143 729 146
143 730 88
143 730 146
143 730 147
143 731 88
143 731 89
143 731 147
143 731 148
143 731 157
143 731 158
143 732 88
143 732 89
143 732 148
143 732 149
143 732 150
143 732 151
143 732 157
143 732 158
143 732 159
143 733 89
143 733 149
143 733 150
143 733 151
143 733 152
143 733 156
143 733 157
143 733 158
143 733 159
143 734 89
143 734 150
143 734 151
143 734 152
143 734 153
143 734 155
143 734 156
143 734 157
143 734 158
143 734 159
143 735 89
143 735 90
143 735 150
143 735 151
143 735 152
143 735 153
143 735 154
143 735 155
143 735 156
143 735 157
143 735 158
143 735 159
143 735 160
143 736 89
143 736 152
143 736 153
143 736 154
143 736 155
143 736 156
143 736 157
143 736 158
143 736 159
143 736 160
143 737 89
143 737 90
143 737 153
143 737 154
143 737 155
143 737 156
143 737 157
143 737 158
143 737 159
143 737 160
143 737 161
143 738 89
143 738 153
143 738 154
143 738 155
143 738 159
143 738 160
143 738 161
143 739 90
143 739 160
143 739 161
143 740 89
143 740 90
143 740 161
143 741 89
143 741 90
143 741 161
143 741 162
143 742 89
143 742 161
143 742 162
143 743 89
143 743 162
143 743 163
143 744 89
143 744 162
143 744 163
143 745 89
143 745 162
143 745 163
143 746 89
143 746 163
143 746 164
143 747 89
143 747 90
143 747 163
143 747 164
143 748 90
143 748 164
143 749 90
143 749 164
143 750 90
143 750 164
143 751 90
143 751 164
143 752 90
143 752 164
143 752 165
143 753 90
143 753 164
143 753 165
143 754 90
143 754 165
143 755 90
143 755 165
143 756 90
143 756 165
143 757 90
143 757 166
143 758 90
143 758 91
143 758 166
143 759 90
143 759 91
143 759 166
143 760 91
143 760 166
143 760 167
143 761 91
143 761 166
143 762 91
143 762 166
143 762 167
143 763 91
143 763 166
143 763 167
143 764 91
143 764 167
143 765 91
143 765 167
143 765 168
143 766 91
143 766 167
143 766 168
143 767 91
143 767 92
143 767 167
143 767 168
143 768 91
143 768 92
143 768 167
143 768 168
143 769 92
143 769 168
143 769 169
143 770 92
143 770 168
143 770 169
143 771 92
143 771 168
143 771 169
143 772 92
143 772 168
143 772 169
143 772 170
143 773 92
143 773 169
143 773 170
143 774 92
143 774 169
143 774 170
143 775 92
143 775 169
143 775 170
143 775 171
143 776 92
143 776 93
143 776 170
143 776 171
143 776 172
143 777 92
143 777 93
143 777 170
143 777 171
143 777 172
143 778 93
143 778 171
143 778 172
143 779 93
143 779 171
143 779 172
143 779 173
143 780 93
143 780 171
143 780 172
143 780 173
143 780 174
143 780 175
143 781 93
143 781 171
143 781 172
143 781 173
143 781 174
143 781 175
143 782 93
143 782 171
143 782 172
143 782 173
143 782 174
143 783 93
143 783 170
143 783 171
143 783 172
143 783 173
143 783 174
143 784 94
143 784 170
143 784 171
143 784 172
143 784 173
143 784 174
143 785 94
143 785 170
143 785 171
143 785 172
143 785 173
143 786 94
143 786 170
143 786 171
143 786 172
