ply
format ascii 1.0
comment Created by Open3D
element vertex 4097
property double x
property double y
property double z
end_header
153 837 125
155 838 140
156 838 141
157 837 142
153 838 127
153 837 127
153 838 128
153 838 129
153 839 130
153 839 131
153 839 137
154 839 138
155 839 139
156 838 140
156 839 139
153 839 132
153 839 133
153 839 134
153 839 135
153 839 136
154 463 105
154 463 106
154 462 109
154 462 110
155 463 101
155 463 102
154 463 113
154 463 114
154 465 99
154 465 100
154 464 116
155 466 96
155 465 97
154 465 118
154 466 119
155 466 95
154 467 120
155 468 93
155 467 94
155 469 93
155 470 91
154 471 90
155 470 92
154 471 89
155 471 90
154 472 89
155 471 89
155 470 90
154 473 88
154 472 88
154 474 88
154 474 127
155 474 87
155 472 88
155 475 87
154 477 88
154 476 87
153 477 90
155 478 86
154 478 87
153 478 131
154 479 86
155 478 87
155 479 86
154 480 86
154 481 86
155 481 85
155 481 86
155 482 85
155 482 86
155 483 86
155 483 88
154 484 136
154 485 136
155 483 87
154 484 90
154 483 90
154 484 135
155 484 97
154 484 98
155 485 98
154 485 135
154 486 100
154 486 135
154 487 101
154 487 135
154 488 101
155 488 101
154 488 135
154 490 102
154 489 135
155 490 63
155 490 64
154 490 65
153 491 103
154 490 135
154 491 64
155 491 64
154 491 65
154 491 66
155 491 135
154 493 62
154 492 63
154 492 64
154 492 65
154 492 66
154 492 67
154 492 134
154 493 60
154 493 61
154 494 62
154 493 64
154 493 65
154 493 66
153 493 67
154 492 68
154 494 60
154 494 61
154 494 63
153 493 66
153 494 67
153 494 68
154 494 133
155 494 134
154 495 59
154 495 60
154 495 61
152 495 67
153 494 69
153 494 70
154 495 133
154 496 57
154 496 58
154 496 59
152 496 69
152 496 70
153 496 103
154 496 133
154 497 57
153 497 58
152 497 70
153 497 71
154 497 102
154 498 132
155 497 133
154 498 56
154 498 57
153 498 57
153 498 71
153 499 71
155 498 132
154 499 132
154 499 55
154 499 56
153 499 57
152 499 70
153 500 71
155 498 102
155 499 132
154 499 173
154 499 174
154 499 175
154 499 176
154 499 177
154 500 55
154 500 56
153 499 56
153 501 71
156 499 101
154 500 132
154 500 170
153 500 171
153 500 172
154 500 175
154 500 176
154 500 177
155 501 54
154 502 55
155 501 55
154 502 71
154 501 72
155 498 101
154 501 168
153 501 169
153 501 175
154 501 177
153 501 177
154 501 178
154 501 179
155 502 54
155 503 54
154 502 72
157 500 100
154 501 131
154 502 166
154 502 167
153 502 175
153 502 176
154 502 178
153 502 178
154 502 179
155 504 54
154 503 72
158 503 99
154 502 130
154 503 165
154 503 166
153 503 177
153 503 178
153 503 179
155 505 54
156 504 54
154 504 71
154 504 72
158 502 99
154 504 128
154 504 163
154 504 164
153 504 177
153 504 178
153 504 179
154 503 180
155 506 54
156 505 54
154 505 72
154 505 127
154 505 162
153 505 178
153 505 179
153 505 180
153 505 181
156 506 53
156 506 54
155 506 72
154 506 127
154 506 161
155 506 161
153 506 179
153 506 180
153 506 181
156 507 53
156 507 54
154 507 71
154 507 126
154 507 159
153 507 180
153 508 180
153 507 181
153 507 182
153 507 183
156 508 53
154 508 71
155 508 72
154 508 126
154 508 157
154 508 158
153 508 181
153 508 182
153 508 183
153 509 183
153 508 184
154 508 185
154 508 186
154 508 187
155 510 53
155 509 72
154 509 126
154 510 155
154 509 156
154 509 157
152 509 181
152 510 182
154 509 185
154 509 188
156 510 53
155 510 72
154 510 126
155 510 154
155 510 155
154 510 156
154 510 157
154 510 189
156 511 53
155 511 72
158 511 96
154 511 126
154 511 153
154 511 154
154 511 155
154 511 156
154 511 189
156 512 52
156 512 53
155 512 72
156 512 73
157 512 95
154 512 127
154 513 127
154 512 143
154 512 144
154 512 145
154 512 146
154 512 147
155 512 148
155 512 149
155 512 150
155 512 151
154 512 152
154 512 153
154 512 154
154 512 155
154 512 189
156 513 52
156 513 53
156 513 73
157 513 95
154 513 128
154 513 142
154 513 143
154 513 144
154 513 145
154 513 146
154 513 147
154 513 148
154 513 149
154 513 150
154 513 151
154 513 152
154 513 153
154 513 154
153 513 155
154 513 189
156 514 52
156 514 74
157 514 95
154 514 128
154 514 141
154 514 142
154 514 143
154 514 144
154 514 145
154 514 146
154 514 147
154 514 148
154 514 149
154 514 150
154 514 151
154 514 152
154 514 153
153 514 154
154 514 190
156 515 52
155 516 73
156 516 94
155 514 128
154 515 129
154 516 130
155 515 131
155 516 132
155 516 133
154 515 141
154 515 142
154 515 143
154 515 144
154 515 145
154 515 146
154 515 147
154 515 148
154 515 149
154 515 150
154 515 151
154 515 152
153 515 153
153 515 154
154 515 190
156 517 52
155 517 73
156 517 93
154 516 129
155 516 130
155 516 131
155 517 132
155 516 134
154 517 135
155 516 135
154 515 140
153 516 141
154 516 142
154 516 143
154 516 144
154 516 145
154 516 146
154 516 147
154 516 148
153 516 149
153 516 150
153 516 151
153 516 152
153 516 153
154 516 190
156 519 51
155 518 74
156 517 75
156 518 92
157 515 95
154 518 130
155 517 133
155 517 134
154 518 135
154 517 136
153 517 139
153 517 140
153 517 141
153 517 142
154 517 145
154 517 146
153 517 147
153 517 148
153 517 149
153 517 150
153 517 151
152 517 152
154 517 190
156 520 51
155 519 74
155 519 75
155 519 92
157 516 94
157 517 93
157 515 94
155 518 133
154 519 135
154 518 136
153 518 139
153 518 140
153 518 141
153 518 142
153 518 150
152 518 151
152 518 152
154 518 191
156 521 51
155 520 75
156 519 92
157 518 92
157 516 93
157 517 92
153 519 135
154 519 136
154 518 137
153 519 138
153 519 139
153 519 140
153 519 141
154 519 191
156 522 51
154 521 75
155 521 91
156 520 91
156 519 91
153 520 136
153 520 137
153 520 138
153 520 139
152 520 140
154 520 191
157 521 50
155 521 75
155 521 76
152 521 137
152 521 138
152 521 139
156 523 51
155 522 76
154 522 192
156 524 50
154 523 76
154 524 77
154 523 192
156 524 51
154 524 76
155 524 77
154 524 192
156 525 50
154 525 78
155 525 79
154 523 90
154 525 192
156 526 50
154 526 78
154 526 79
155 526 80
155 526 81
155 526 85
155 526 87
154 526 88
154 526 89
154 526 192
156 527 50
154 527 79
154 527 80
155 527 81
155 527 82
155 527 83
155 527 84
155 527 85
155 527 86
154 527 87
155 527 87
155 526 88
154 525 89
155 525 89
155 524 89
154 527 192
156 528 50
155 528 83
155 528 84
155 528 85
155 528 86
155 526 86
155 525 88
155 525 87
155 524 88
154 528 192
156 529 50
154 529 192
156 530 50
154 530 192
156 531 49
154 531 192
156 532 49
154 532 192
156 533 49
154 533 193
156 534 49
154 534 193
156 535 49
153 535 192
156 536 49
154 536 193
156 537 49
153 537 193
156 538 49
153 538 193
156 539 49
153 539 194
156 540 49
153 540 194
156 541 49
153 541 194
153 542 194
155 544 50
153 543 125
153 543 126
153 543 127
153 542 128
153 543 128
153 543 129
154 542 131
154 542 132
154 542 133
154 542 134
154 542 135
154 543 135
154 542 136
153 543 194
154 542 195
152 544 53
153 544 124
153 544 125
153 544 126
153 544 127
153 544 128
154 544 129
154 543 130
154 543 131
154 543 132
154 543 133
154 543 134
154 544 135
154 543 136
154 543 137
153 544 194
155 545 49
152 543 124
153 545 126
153 545 127
154 545 128
154 545 129
153 544 129
154 544 130
154 544 131
154 544 132
154 544 133
154 544 134
154 545 135
154 544 136
154 544 137
154 544 138
154 545 194
155 546 49
153 546 126
154 546 127
154 546 128
154 546 129
154 545 130
154 545 131
154 545 132
154 545 133
154 545 134
154 546 135
154 545 136
154 545 137
154 545 138
153 545 194
155 547 49
154 547 126
153 546 127
154 547 128
154 546 130
154 546 131
154 546 132
154 546 133
154 546 134
154 547 134
154 547 135
154 546 136
154 546 137
154 546 138
154 547 193
155 548 49
154 548 126
154 547 127
154 547 129
154 548 129
154 547 130
154 547 131
154 547 132
154 547 133
154 548 134
154 548 135
154 547 136
154 547 137
154 547 138
154 548 193
154 550 50
154 548 127
154 549 127
154 548 128
154 549 129
154 548 130
154 548 131
155 548 132
154 548 133
155 548 134
154 549 135
154 548 136
154 548 137
154 548 138
153 548 193
152 550 51
154 549 126
154 550 127
154 549 128
155 549 129
155 549 130
155 549 131
155 549 132
155 549 133
154 549 134
154 550 135
154 549 136
154 549 137
154 549 138
154 549 193
154 552 50
154 550 121
154 550 122
154 550 123
154 550 124
154 551 126
154 550 128
154 550 129
155 550 129
155 550 130
155 550 131
155 550 132
155 550 133
155 550 134
154 551 135
154 550 136
154 550 137
154 550 138
155 550 193
151 551 52
154 551 121
154 552 126
154 551 127
154 552 127
154 551 128
155 551 129
155 551 130
155 551 131
155 551 132
155 551 133
155 551 134
154 552 135
154 551 136
154 551 137
154 551 138
155 551 193
154 551 49
154 554 51
154 551 120
155 552 121
154 552 122
154 553 126
154 553 127
154 552 128
155 552 129
155 552 130
155 552 131
155 552 132
155 552 133
155 552 134
154 553 135
154 552 136
154 552 137
154 552 138
154 552 192
155 552 192
155 554 50
152 554 51
154 553 118
155 553 127
155 554 127
155 553 128
155 553 129
155 553 130
155 553 131
155 553 132
155 553 133
155 553 134
154 554 135
154 553 136
154 553 137
154 553 138
155 553 192
154 554 191
155 555 48
155 554 49
154 555 50
155 555 50
155 555 49
155 554 118
155 555 126
155 554 128
155 554 129
155 555 129
155 554 130
155 554 131
155 554 132
155 554 133
155 554 134
155 554 135
154 554 136
154 554 137
154 554 138
154 552 139
154 554 190
155 554 191
155 556 48
154 556 49
155 556 49
155 553 49
151 553 54
155 555 117
155 555 127
155 556 127
155 555 128
155 556 129
155 555 130
155 555 131
155 555 132
155 555 133
154 556 134
154 555 135
154 555 136
154 555 137
154 556 136
154 551 139
154 555 190
155 555 190
155 557 48
156 556 48
156 555 48
156 557 48
150 555 54
154 556 116
155 556 133
154 557 134
154 556 135
154 557 135
154 558 135
155 556 134
154 559 135
155 556 190
155 558 48
154 557 116
154 558 134
155 557 134
155 558 134
154 557 189
156 558 48
155 558 116
155 558 126
154 559 134
155 559 134
155 560 134
155 555 134
154 558 188
156 559 48
155 559 116
155 560 125
155 561 134
155 559 133
155 560 133
155 558 133
155 557 133
154 559 186
156 560 47
156 559 47
155 560 115
156 560 117
155 560 126
155 561 133
155 562 133
156 562 133
155 563 133
154 561 183
154 561 184
156 561 47
157 561 47
154 561 114
155 562 125
155 560 132
156 563 133
156 561 132
156 564 133
154 562 182
155 561 183
157 562 47
157 560 47
154 562 114
156 562 116
155 562 123
156 562 132
156 563 132
156 565 133
156 560 132
156 564 132
155 562 182
158 564 47
158 561 47
155 563 114
156 563 116
156 563 124
156 565 132
156 563 131
156 566 132
156 562 131
154 563 181
158 565 47
158 564 46
154 564 113
156 564 115
156 564 124
156 564 131
156 565 131
156 567 132
156 566 131
157 565 131
155 564 180
158 565 46
158 566 46
154 565 113
156 565 115
156 567 131
157 566 131
157 567 131
156 564 130
155 565 179
158 567 46
158 568 46
154 566 113
156 565 118
156 568 130
157 566 130
157 565 130
157 567 130
155 566 178
159 567 46
159 566 46
154 567 113
156 567 119
156 567 124
157 568 130
157 567 129
157 564 130
156 563 130
155 567 177
159 568 46
159 569 46
153 569 114
157 568 117
155 569 124
157 568 129
157 569 129
156 568 128
157 566 129
154 568 176
155 568 177
159 570 46
159 571 46
152 570 115
156 570 119
155 569 125
155 569 126
156 569 128
156 569 127
157 569 128
157 568 128
157 567 128
156 568 127
155 569 176
159 570 45
159 569 45
156 571 118
156 571 119
155 570 123
156 569 126
156 568 126
156 567 127
157 567 127
157 566 128
154 570 175
159 568 45
160 574 46
155 573 117
156 571 120
155 569 123
156 568 125
156 567 126
156 567 125
156 566 127
157 566 127
154 571 174
160 572 45
160 571 45
153 573 116
156 572 118
155 570 122
156 569 123
156 568 124
156 570 122
154 572 173
160 573 45
160 574 45
156 573 117
156 574 117
156 571 121
154 573 173
160 575 45
160 576 45
153 574 116
157 572 118
153 574 171
154 574 173
160 577 45
161 575 45
156 575 116
156 574 116
153 575 170
153 575 171
161 576 45
161 577 45
156 576 116
154 576 115
153 576 169
153 576 170
161 578 45
161 579 45
155 577 115
155 576 115
153 577 167
153 577 168
153 577 169
153 577 170
161 580 45
161 581 45
156 577 115
156 583 123
156 581 127
156 581 128
157 580 129
156 581 129
153 578 166
153 578 167
153 578 168
153 578 169
153 578 170
153 578 171
153 578 172
153 578 173
161 582 45
161 579 44
153 583 117
156 582 125
156 582 126
157 581 127
157 581 128
157 580 130
157 580 131
157 580 132
157 580 133
157 580 134
156 580 136
157 580 135
156 580 138
156 579 139
156 580 139
156 580 140
153 579 164
153 580 164
153 579 165
152 579 166
153 579 168
153 580 168
153 579 169
153 579 170
153 579 171
153 579 172
153 579 173
161 580 44
161 581 44
154 584 122
156 583 124
156 582 127
157 581 129
158 580 132
158 580 133
157 580 136
157 581 136
157 580 137
157 581 137
157 580 138
156 580 141
156 579 141
156 580 142
156 581 142
156 581 143
156 581 145
156 581 146
156 581 147
156 582 147
156 582 148
155 582 150
155 582 151
155 582 152
155 582 153
153 580 162
153 580 163
153 581 164
153 581 165
153 581 166
153 581 167
153 580 169
153 580 170
153 580 171
153 580 172
153 580 173
154 580 174
161 582 44
161 583 44
155 584 121
155 584 122
156 583 125
157 582 126
156 582 144
156 582 145
156 582 146
156 583 147
156 583 148
156 582 149
156 582 150
155 583 151
155 583 152
155 583 153
155 582 154
155 583 154
154 583 155
153 581 160
153 581 161
153 581 162
153 581 163
153 582 164
153 582 165
153 582 166
152 581 167
153 581 169
153 581 170
153 581 171
154 582 172
161 584 44
161 585 44
154 584 118
156 584 121
156 583 151
156 583 152
155 584 153
155 584 154
154 583 156
154 582 157
154 582 158
154 581 158
153 583 159
153 582 160
153 582 161
153 582 162
153 582 163
153 583 164
152 582 165
152 581 166
154 583 169
154 582 170
154 582 171
154 583 172
161 586 44
162 583 44
155 585 119
155 585 121
154 583 157
154 584 157
153 583 158
153 584 159
153 583 160
153 583 161
153 583 162
153 583 163
153 584 163
153 583 169
154 583 170
154 583 171
162 582 44
162 581 44
154 584 117
155 585 120
153 584 161
153 584 162
153 585 163
154 584 168
154 584 169
154 584 170
155 584 171
162 585 43
162 584 43
154 585 117
155 585 118
153 585 159
153 585 160
153 585 161
153 585 162
154 586 163
154 585 167
154 585 168
154 585 169
155 585 170
162 586 43
162 587 43
155 586 116
155 586 118
154 586 159
154 587 160
154 587 161
153 586 162
154 587 163
154 586 164
154 586 165
154 586 166
154 586 167
155 586 168
155 586 169
162 588 43
162 589 43
154 586 115
156 587 117
153 587 161
154 587 162
154 587 164
154 587 165
155 587 165
155 587 166
155 587 167
162 590 43
162 591 43
154 587 114
156 587 116
162 594 44
162 592 43
154 589 113
156 588 115
158 586 123
162 593 43
162 594 43
154 590 113
155 590 113
157 586 121
162 595 43
163 591 43
154 591 113
155 591 113
158 587 121
162 596 43
163 592 43
154 592 112
155 592 113
162 597 43
163 593 43
154 593 112
154 594 113
162 598 43
163 594 43
154 594 112
154 595 112
162 600 44
162 599 43
154 596 112
154 595 111
162 600 43
163 596 43
154 596 111
154 597 112
162 602 44
163 597 43
154 598 112
154 598 113
162 602 43
163 598 43
154 599 112
154 599 113
162 604 44
162 603 43
154 600 112
154 600 113
162 605 44
162 604 43
155 600 112
154 600 114
162 606 44
162 605 43
155 601 112
154 601 113
162 607 44
162 606 43
154 602 113
155 602 113
162 608 44
162 607 43
154 603 114
154 604 114
162 608 43
163 604 43
155 604 113
155 604 114
162 609 43
163 605 43
154 605 114
154 605 115
162 611 44
162 610 43
154 606 114
154 606 115
162 612 44
163 607 43
154 607 114
154 608 114
162 613 44
163 608 43
155 608 114
154 609 115
162 614 44
163 613 44
154 609 114
154 610 115
162 615 44
163 614 44
155 610 114
154 611 115
162 616 44
163 615 44
154 611 116
153 611 116
163 616 44
163 612 43
154 612 116
154 613 117
163 617 44
163 613 43
154 613 116
154 614 117
163 618 44
163 614 43
154 614 116
153 614 117
163 619 44
163 615 43
154 615 116
154 615 117
162 621 44
162 623 45
154 616 116
154 616 117
162 622 44
163 620 44
154 617 116
154 617 117
162 624 45
162 623 44
154 618 116
154 618 117
162 625 45
163 621 44
154 619 116
154 619 117
163 624 45
162 626 45
163 622 44
154 620 116
154 620 117
163 625 45
162 627 45
154 621 116
154 621 117
163 626 45
162 628 45
154 622 116
154 622 117
163 627 45
162 629 45
154 623 116
153 622 117
163 628 45
162 630 45
163 624 44
154 624 116
154 625 116
163 629 45
162 631 45
163 625 44
154 625 115
153 625 116
163 630 45
163 626 44
163 627 44
154 626 115
163 631 45
163 628 44
163 632 45
154 627 115
163 629 44
163 630 44
163 633 45
154 628 115
162 636 46
163 631 44
163 634 45
154 629 115
162 637 46
163 636 46
163 635 45
154 630 115
162 638 46
163 637 46
163 632 44
154 631 115
162 639 46
163 636 45
163 638 46
154 632 115
162 640 46
163 637 45
163 639 46
154 633 115
162 641 46
163 638 45
163 640 46
154 634 115
163 639 45
163 641 46
164 635 45
154 635 115
163 640 45
163 642 46
164 636 45
154 636 115
162 645 47
163 644 47
163 643 46
154 637 115
162 646 47
163 645 47
164 642 46
154 638 115
163 644 46
162 647 47
163 646 47
154 639 115
163 645 46
164 643 46
162 649 48
154 640 114
163 647 47
163 648 48
163 646 46
163 649 48
154 641 115
162 650 48
163 648 47
162 651 49
164 644 46
154 642 115
163 649 47
163 650 48
162 652 49
164 645 46
154 643 114
164 648 47
163 651 48
162 653 49
163 652 49
154 644 114
163 650 47
162 654 50
161 655 50
161 656 51
154 645 115
163 652 48
162 654 49
163 653 49
162 655 50
154 646 115
161 656 50
162 655 49
161 657 51
163 654 49
154 647 115
163 653 48
162 656 50
161 658 52
160 659 53
154 648 115
162 657 51
160 659 52
161 658 51
160 660 53
154 649 115
162 657 50
161 659 52
159 661 54
160 660 52
158 662 55
154 650 115
163 655 49
161 659 51
162 658 51
160 661 54
154 651 115
162 658 50
160 661 53
159 662 55
157 663 57
154 652 115
159 662 54
158 663 56
158 663 55
154 653 115
161 660 52
156 664 58
156 664 59
154 654 115
160 662 54
157 664 57
157 664 58
155 665 60
154 655 115
159 663 55
158 664 57
156 665 60
155 656 114
156 665 59
157 665 59
155 657 114
157 665 58
155 666 60
154 658 115
157 665 57
155 666 61
154 660 115
156 666 60
156 666 59
154 661 115
157 666 59
155 667 61
154 661 116
155 667 62
156 667 60
154 662 116
156 667 59
155 668 62
154 663 116
155 668 61
154 668 63
154 664 116
155 668 63
154 669 63
154 665 117
156 668 61
155 669 63
154 666 117
155 669 62
154 669 64
154 667 117
154 670 63
154 670 64
154 668 117
155 670 63
154 671 64
153 669 118
154 671 63
154 671 65
154 670 118
154 672 64
154 672 65
154 672 119
155 672 64
154 672 66
154 673 119
154 673 64
154 673 65
154 674 119
154 674 65
154 674 66
154 675 120
154 675 65
154 675 66
154 676 120
155 676 65
154 676 66
154 677 120
155 677 66
154 677 67
154 677 121
155 678 66
154 678 67
154 678 121
155 679 66
154 679 67
154 680 122
154 679 152
154 679 153
154 679 154
154 679 155
154 679 156
155 680 66
155 680 68
154 681 122
154 680 151
154 680 152
154 680 153
154 680 154
154 680 155
154 680 156
154 680 157
155 681 67
154 680 69
154 681 123
154 681 150
154 681 151
154 681 152
154 681 153
154 681 154
154 681 155
154 681 156
154 681 157
154 681 158
155 682 68
154 682 71
154 682 123
154 682 150
154 682 151
154 683 151
154 684 151
154 682 156
154 683 156
154 682 157
154 682 158
154 682 159
155 683 69
155 683 70
154 683 123
154 683 149
154 683 150
154 684 150
154 685 152
154 685 153
154 684 155
154 683 157
154 684 157
154 683 158
154 684 158
154 683 159
154 683 161
155 684 70
154 685 71
155 684 123
154 684 149
154 685 150
154 685 151
154 686 150
153 686 150
154 685 157
153 685 157
154 685 158
154 684 159
154 685 159
154 684 160
154 684 161
155 685 70
154 684 72
154 685 125
154 685 148
154 685 149
154 686 149
153 686 149
153 686 158
154 686 159
153 686 159
154 685 160
154 686 160
154 685 161
155 686 71
154 687 72
155 686 124
154 686 148
153 686 148
153 687 149
153 687 159
154 687 160
154 686 161
154 686 162
155 687 72
154 686 73
155 687 124
153 687 148
153 688 148
153 688 159
153 687 160
154 687 161
154 687 162
154 687 163
155 688 72
155 688 73
155 688 125
154 688 146
153 688 147
153 689 147
153 689 159
153 688 160
154 688 161
154 688 162
155 689 72
155 689 74
155 689 125
153 689 146
153 690 147
153 690 159
154 689 161
154 689 162
154 690 162
154 689 163
155 690 73
154 690 75
154 690 127
154 690 144
153 690 146
153 691 146
153 691 159
153 690 160
153 690 161
153 690 162
154 690 163
154 691 74
155 691 74
154 691 126
155 691 141
154 691 144
153 691 145
153 692 145
153 691 160
153 692 160
153 691 161
153 691 162
153 691 163
154 691 164
155 692 74
155 692 75
154 693 127
155 692 141
154 692 144
153 693 145
152 692 146
153 693 160
153 692 161
153 692 162
153 692 163
154 692 165
154 693 165
154 692 166
154 693 75
154 694 76
155 693 127
154 693 142
154 693 143
153 693 144
153 694 144
153 693 161
153 694 161
153 693 162
153 693 163
153 693 164
153 693 165
154 693 166
155 694 76
154 693 77
154 694 127
154 694 142
154 694 143
153 694 143
153 694 162
153 694 163
153 694 164
153 694 165
154 694 166
154 694 167
154 693 167
154 694 168
155 695 76
154 695 77
154 695 128
154 695 142
153 695 143
153 696 143
153 695 163
153 695 164
153 695 165
154 695 166
154 695 167
154 695 168
154 696 77
155 697 78
154 697 129
154 697 142
154 698 142
153 696 164
153 696 165
153 697 165
153 696 166
154 696 167
154 696 168
154 696 169
154 696 170
155 698 78
154 698 79
154 698 129
155 697 139
155 697 140
155 698 140
155 696 140
153 698 165
153 697 166
154 697 167
153 697 167
154 697 168
154 697 169
154 697 170
155 698 79
154 699 80
154 698 128
155 698 138
155 698 139
155 699 140
155 699 139
152 698 144
153 698 166
153 698 167
154 698 168
153 698 168
154 698 169
154 698 170
154 698 171
155 699 79
154 700 80
154 699 129
155 699 137
154 700 138
155 700 139
155 699 138
155 700 138
153 699 166
153 699 167
153 699 168
154 699 169
154 700 169
154 699 170
154 699 171
155 700 80
154 701 81
154 700 129
155 700 136
155 700 137
154 701 138
154 701 137
153 700 169
154 700 170
154 700 171
154 700 172
154 700 173
154 702 81
154 703 82
153 701 130
155 701 135
155 701 136
155 701 137
154 702 138
154 701 172
154 701 173
154 701 174
154 701 175
154 701 176
155 702 81
155 703 82
154 702 130
155 702 135
154 702 137
155 702 137
154 703 137
154 702 174
154 702 175
154 702 176
155 704 83
154 705 83
154 703 130
155 703 135
154 703 136
154 704 136
155 703 136
154 703 175
154 703 176
154 703 177
154 703 178
155 704 82
155 706 84
154 705 131
155 704 135
154 705 136
154 705 135
154 706 136
154 704 176
154 704 177
154 704 178
155 705 83
154 707 84
154 706 132
155 705 134
155 706 134
154 706 135
155 705 135
154 707 135
155 702 136
155 704 134
154 705 176
154 705 177
154 705 178
154 705 179
155 707 84
155 708 85
154 706 131
154 707 132
154 707 134
155 707 134
156 706 134
154 708 134
151 707 135
156 707 134
154 706 177
154 706 178
154 706 179
154 706 180
154 706 181
155 708 84
155 709 85
153 707 132
155 708 134
155 708 133
156 705 134
150 706 135
150 705 135
154 707 178
154 707 179
154 707 180
154 707 181
155 710 86
155 710 85
154 708 132
155 709 133
156 708 133
156 707 133
151 710 134
156 706 133
150 711 135
154 708 179
154 708 180
154 708 181
154 708 182
155 711 86
155 712 87
155 709 132
155 708 132
151 711 134
156 708 132
150 712 135
149 710 135
148 711 136
154 709 180
154 709 181
154 709 182
154 709 183
155 712 86
155 713 87
155 708 131
151 714 135
150 714 136
157 707 133
149 714 136
154 710 180
154 710 181
154 710 182
154 710 183
154 710 184
156 713 87
155 714 88
150 715 136
148 714 137
147 712 137
149 716 137
154 711 182
154 711 183
154 711 184
154 711 185
155 714 87
155 715 88
156 707 132
156 708 131
146 713 139
146 714 139
153 712 183
154 712 184
154 712 185
154 712 186
154 712 187
156 715 88
155 716 89
154 707 131
153 721 139
152 721 139
152 721 140
153 713 184
153 713 185
154 713 186
154 713 187
154 713 188
154 713 189
156 716 89
155 717 90
152 722 138
152 722 139
152 722 140
151 722 139
154 714 189
153 714 189
154 714 190
154 714 191
155 717 89
156 717 90
151 722 138
151 722 140
151 723 140
151 723 141
154 715 191
154 715 192
154 715 193
156 718 91
155 719 91
150 723 140
145 714 139
147 722 140
145 713 139
154 716 192
154 716 193
154 716 194
156 718 90
155 720 92
145 712 139
144 716 140
144 715 140
144 719 141
154 717 194
154 717 195
156 719 91
155 721 93
146 710 138
144 714 140
143 718 141
145 711 139
154 718 195
154 718 196
156 720 92
155 721 92
145 710 138
142 717 141
143 713 140
146 709 138
154 719 195
154 719 196
155 722 93
156 721 92
154 720 196
155 723 94
154 721 196
154 721 197
155 723 93
155 724 95
154 722 196
154 722 197
155 724 94
156 724 94
154 723 196
154 723 197
155 725 96
154 725 97
154 724 196
154 724 197
155 725 94
155 726 96
154 725 196
154 725 197
155 727 96
154 726 196
154 726 197
155 727 97
155 728 97
154 727 196
155 728 96
155 729 97
154 728 196
155 730 97
154 729 196
155 731 97
154 730 196
155 732 97
154 733 97
153 731 195
154 731 196
155 733 97
155 734 98
153 732 195
154 732 196
155 734 97
154 733 195
154 733 196
155 735 98
154 734 195
154 734 196
153 735 97
154 735 195
155 736 98
154 736 195
155 737 98
153 737 194
154 737 195
155 738 98
154 738 194
154 738 195
155 739 99
154 739 194
154 739 195
156 740 97
155 740 99
154 740 194
154 740 195
156 741 98
154 741 194
154 741 195
156 742 97
154 742 194
156 743 97
155 743 99
154 743 194
154 743 195
156 744 97
154 744 194
155 744 195
155 746 98
154 745 194
155 745 195
155 747 98
154 746 194
155 746 195
155 748 98
154 747 194
155 747 195
156 748 96
154 748 193
154 748 194
155 748 195
156 749 96
156 749 95
154 749 194
155 749 194
155 748 194
156 750 95
155 750 194
155 751 194
156 750 194
156 750 195
156 751 94
156 752 193
156 751 194
156 751 195
156 752 194
156 752 93
156 750 94
156 753 194
157 752 194
157 753 194
157 752 195
156 753 93
157 754 193
157 754 194
157 751 195
158 753 195
156 754 92
157 755 193
157 756 193
158 754 194
157 753 93
157 756 192
157 757 192
158 755 194
157 756 92
157 758 192
158 756 193
157 755 92
157 757 91
157 758 191
157 758 91
156 760 191
158 759 91
158 760 91
156 761 190
158 761 91
156 761 189
157 760 190
158 762 91
158 763 91
156 762 189
158 762 90
158 763 90
156 763 189
156 764 188
158 764 90
156 765 187
156 765 188
157 763 189
158 765 90
156 766 187
158 766 90
156 767 186
159 766 90
156 768 185
159 767 90
155 769 184
159 768 90
155 769 185
159 769 90
154 770 184
159 770 90
154 771 183
159 771 90
155 771 183
159 772 90
155 772 183
159 773 90
155 773 183
158 776 90
154 773 182
158 776 89
155 775 182
158 777 89
159 775 90
155 776 181
159 777 89
154 777 180
158 781 90
154 778 180
159 779 90
154 779 179
158 782 90
154 780 178
158 783 90
154 781 178
157 785 90
154 782 177
158 784 90
154 783 177
157 786 90
155 784 176
156 788 90
155 785 175
157 787 90
154 787 174
156 789 90
155 787 174
156 790 91
154 788 174
156 790 90
154 789 173
156 791 91
155 790 173
156 792 91
154 791 172
155 794 91
155 792 172
156 793 91
154 793 171
155 795 91
154 794 171
155 796 91
154 795 170
155 797 92
154 796 169
155 798 92
154 797 169
155 799 93
154 798 168
155 800 93
154 799 168
155 801 93
154 800 167
154 802 93
154 801 167
155 802 93
154 802 166
154 804 94
154 803 165
154 805 94
154 804 165
154 806 94
154 805 164
154 807 95
154 807 163
154 808 95
154 808 163
154 808 96
154 808 162
154 809 96
154 809 162
154 810 96
154 810 161
155 811 97
154 812 160
154 813 98
154 812 161
154 814 98
154 814 159
154 814 99
155 815 99
154 815 159
155 816 99
155 816 100
155 815 158
155 817 100
156 816 99
154 816 158
155 818 100
155 819 101
154 817 157
154 817 158
156 818 100
155 818 157
155 820 101
156 819 101
154 819 156
155 821 102
156 820 102
155 820 155
155 819 156
155 822 103
156 822 103
156 821 155
155 824 104
156 822 154
156 820 155
156 823 104
156 823 153
156 821 154
156 824 105
156 825 106
157 824 153
156 826 106
156 826 107
157 825 152
157 823 154
156 827 107
156 828 108
157 826 151
157 824 152
156 828 107
156 829 109
158 827 151
158 826 152
157 828 108
158 828 150
158 829 150
157 829 109
157 830 110
158 829 149
159 829 150
157 831 110
156 832 112
159 830 149
159 829 149
157 831 111
156 832 113
159 832 147
159 831 148
156 833 113
155 833 114
155 833 115
156 833 114
155 833 116
159 833 147
159 832 148
157 833 113
156 833 115
154 834 117
154 834 118
158 835 144
159 833 146
154 834 119
154 835 119
158 836 144
154 835 120
158 836 143
159 835 145
159 834 146
154 836 121
154 836 122
158 837 143
154 836 123
154 837 124
157 837 141
157 838 141
158 837 142
154 837 125
154 838 126
154 838 127
154 839 137
155 839 138
157 838 140
157 839 139
154 838 128
154 839 129
154 839 130
154 839 131
154 839 132
154 840 133
154 840 134
154 840 135
154 839 136
155 839 137
155 462 107
155 462 108
155 463 104
155 462 105
155 462 110
155 462 111
155 462 112
155 463 100
156 463 101
155 463 114
155 464 98
155 465 98
155 464 99
155 464 116
156 465 96
156 466 96
155 466 119
156 466 95
155 468 121
156 467 93
156 468 92
156 470 90
155 469 92
156 470 89
156 470 91
155 471 88
156 471 89
155 472 87
155 473 87
156 472 88
156 473 87
155 476 87
155 475 128
156 475 86
155 477 87
156 476 86
156 477 86
156 478 86
154 479 131
156 478 85
156 479 86
156 479 85
155 480 86
156 481 84
156 482 84
155 482 135
156 483 85
156 483 87
155 483 135
156 483 86
155 484 89
155 484 135
156 484 96
155 484 98
155 486 135
155 485 135
155 487 100
155 487 135
156 488 63
155 489 64
155 489 65
155 488 67
156 488 67
155 488 68
155 488 69
155 488 70
155 488 71
155 488 72
155 488 100
155 489 101
155 488 135
156 489 63
156 489 64
155 490 65
155 489 66
155 489 67
155 489 68
155 489 69
155 489 70
155 489 71
155 489 72
155 489 73
154 489 101
155 490 101
155 489 135
155 490 135
157 489 136
155 491 62
155 491 63
156 490 64
155 490 66
154 490 66
155 490 67
155 490 68
155 490 69
155 490 70
155 490 71
155 490 72
155 490 73
156 490 101
154 491 102
155 491 60
155 491 61
155 492 62
154 491 67
154 491 68
154 491 69
154 491 70
155 491 71
155 491 72
155 491 73
154 492 102
156 491 135
155 492 60
155 492 61
154 492 69
154 492 70
154 492 71
154 492 72
155 492 73
155 493 59
155 493 60
153 493 69
154 493 71
154 493 72
155 494 56
155 495 56
155 494 57
155 494 58
154 494 59
154 494 71
153 493 70
154 494 102
155 494 133
156 495 56
155 495 57
154 495 58
154 495 72
155 495 102
155 495 133
156 494 134
156 496 55
155 496 56
154 496 72
155 496 133
156 496 133
155 496 173
156 497 54
155 497 55
155 497 56
154 497 72
154 498 72
156 498 132
156 497 133
155 497 170
155 496 171
154 497 172
154 497 173
154 497 174
155 497 175
155 497 176
155 497 177
155 497 178
155 497 179
155 497 180
156 498 54
155 498 55
155 499 55
155 499 72
155 497 102
156 499 132
156 498 133
155 498 168
155 498 169
154 498 170
154 498 171
154 498 172
154 498 173
154 498 174
154 498 175
154 498 176
155 498 178
154 498 178
155 498 179
155 498 180
156 499 54
155 500 55
154 499 72
156 498 101
155 500 131
155 500 132
155 499 166
155 499 167
155 499 168
154 499 169
154 499 170
154 499 171
154 499 172
154 499 178
155 499 179
155 499 180
155 499 181
155 500 54
156 500 54
155 500 72
154 500 72
157 499 100
155 497 101
156 500 132
157 500 132
155 500 165
155 500 166
155 500 167
154 500 168
154 500 169
154 500 178
154 500 179
154 500 180
155 500 181
155 500 182
156 501 54
156 502 54
155 501 72
158 501 100
155 501 131
155 501 164
155 501 165
155 501 166
154 501 167
154 501 180
155 501 182
155 501 183
156 503 54
157 502 53
155 502 72
157 501 132
155 502 162
155 502 163
155 502 164
155 502 165
154 502 180
154 502 181
155 502 183
154 502 183
155 502 184
157 503 53
157 504 53
155 503 72
156 503 73
155 503 129
155 502 130
155 503 161
155 503 162
155 503 163
155 503 164
154 503 181
154 503 182
154 504 182
154 503 183
155 503 184
155 503 185
157 505 53
155 504 72
155 503 128
154 503 129
155 504 160
155 504 161
155 504 162
154 504 181
154 504 183
154 505 183
154 504 184
155 504 185
155 504 186
157 506 53
155 505 72
155 504 127
156 503 129
155 505 159
155 505 160
155 505 161
154 505 182
154 506 183
155 505 185
155 505 186
155 506 186
155 505 187
157 507 53
156 506 72
155 507 72
155 506 126
154 504 127
157 503 130
159 506 131
155 506 157
155 506 158
155 506 159
153 506 182
154 506 184
154 506 185
154 506 186
155 506 187
155 507 187
155 506 188
156 509 53
156 507 72
157 507 73
155 507 126
155 507 155
156 507 155
155 507 156
155 507 157
155 507 158
154 507 184
154 507 185
154 507 186
154 507 187
155 507 188
155 507 189
157 509 52
156 508 72
155 508 126
156 508 147
156 508 148
156 508 149
156 508 150
156 508 151
156 508 152
156 508 153
155 508 154
155 508 155
155 508 156
155 508 188
155 508 189
155 508 190
157 510 52
156 509 72
155 509 126
155 509 142
155 509 143
155 509 144
155 509 145
155 509 146
155 509 147
155 509 148
155 509 149
155 510 150
155 510 151
156 509 152
155 509 153
155 509 154
155 509 189
155 509 190
157 510 53
156 511 73
155 510 126
155 510 142
155 510 143
155 510 144
155 510 145
155 510 146
155 510 147
155 510 148
155 510 149
156 510 150
155 510 152
155 510 153
155 511 153
155 510 190
157 511 52
157 511 74
155 511 127
155 511 141
155 511 142
155 511 143
155 511 144
155 511 145
155 511 146
155 511 147
155 511 148
155 511 149
155 511 150
155 511 151
155 511 152
155 511 190
157 512 75
155 512 127
155 512 140
155 512 141
155 512 142
155 512 190
157 513 75
157 514 94
158 513 95
155 513 127
155 513 139
155 513 140
154 513 141
155 513 190
155 513 191
157 514 51
156 515 74
157 515 93
158 512 95
155 513 128
155 514 129
155 514 130
155 515 130
156 514 131
156 514 132
156 514 133
156 514 134
156 514 135
155 514 136
155 514 137
155 514 138
154 514 139
154 514 140
155 514 191
157 515 51
156 516 75
157 516 92
158 514 94
158 513 94
158 511 95
155 515 129
156 514 130
155 515 135
156 515 135
155 515 136
155 515 137
154 515 138
154 515 139
154 516 139
154 515 191
155 515 192
157 516 52
156 516 74
158 515 93
158 514 93
158 516 92
158 513 93
158 512 94
159 512 94
155 517 131
155 516 136
154 516 137
154 516 138
154 517 138
155 516 192
155 517 192
157 517 51
156 517 76
157 517 91
158 515 92
157 518 91
158 514 92
154 517 137
153 517 138
154 517 191
154 517 192
157 518 51
156 518 76
157 519 91
158 517 91
153 518 137
153 518 138
155 518 192
155 518 193
157 519 51
156 519 76
155 519 192
155 519 193
157 520 51
155 520 76
155 520 192
155 520 193
157 521 51
155 521 77
155 521 192
155 521 193
157 522 50
155 522 77
155 522 78
155 522 90
156 521 91
155 522 193
156 522 194
157 523 50
155 523 78
155 523 79
156 524 85
156 523 86
156 523 87
156 523 88
155 523 89
155 523 90
155 523 193
156 523 194
157 524 50
155 524 78
155 524 79
155 524 80
155 525 81
156 524 83
156 524 84
156 525 85
156 524 86
156 524 87
156 524 88
156 523 89
156 522 90
156 521 90
155 524 193
156 524 194
157 525 50
155 525 80
156 525 81
156 525 82
156 525 83
156 525 84
155 526 84
156 525 86
156 525 87
156 526 86
156 522 89
156 522 88
156 521 89
157 521 89
155 525 193
156 525 194
157 526 50
155 526 82
155 526 83
156 526 84
156 526 85
157 522 88
156 522 87
157 522 87
156 520 90
155 526 193
156 526 194
155 527 51
155 527 193
156 527 194
157 528 49
155 528 193
156 528 194
157 529 49
155 529 193
155 529 194
156 531 50
155 530 193
155 530 194
156 532 50
155 531 193
155 531 194
157 532 49
155 532 194
157 533 49
155 533 194
157 534 49
155 534 194
157 535 49
155 535 194
156 537 48
155 536 194
156 538 48
154 537 194
156 539 48
155 538 195
156 540 48
154 539 195
156 541 48
154 540 195
154 541 195
156 542 48
155 541 196
156 543 48
154 543 195
155 542 196
156 544 48
155 544 195
155 543 196
156 545 48
155 545 195
155 544 196
155 546 48
154 545 195
155 545 196
155 547 48
154 546 194
155 546 195
155 549 49
155 547 194
155 547 195
155 550 49
155 548 194
155 551 49
155 549 194
155 552 49
156 549 194
156 551 48
155 552 120
154 551 122
155 552 122
155 552 123
154 551 123
156 551 193
156 552 48
155 552 119
155 553 120
155 553 121
155 553 124
155 553 123
155 551 192
156 553 48
155 553 119
156 553 120
155 554 124
155 554 123
156 554 48
156 554 118
156 554 120
155 556 126
155 552 128
156 555 129
156 555 130
155 556 130
155 556 131
155 556 132
156 553 192
157 555 47
157 556 47
157 554 47
157 557 47
156 555 118
156 554 119
156 555 120
155 555 124
155 556 128
156 556 129
156 556 130
155 557 131
155 557 132
156 557 131
155 553 135
155 552 135
155 558 132
155 559 132
156 555 191
157 557 46
157 558 47
158 556 46
157 553 47
157 559 47
155 556 116
156 557 119
156 556 120
155 557 127
155 557 128
156 557 128
156 557 129
156 557 130
155 558 131
156 558 131
156 559 132
155 559 131
156 559 131
156 558 130
156 556 190
158 558 47
158 559 47
158 557 46
155 557 116
156 557 118
156 558 119
156 557 120
155 558 127
155 558 128
156 558 128
155 558 129
156 558 129
156 559 130
156 560 131
156 560 130
156 561 131
156 559 129
156 561 130
155 549 134
158 560 47
158 558 46
156 558 117
156 558 118
156 558 120
156 558 121
155 559 126
155 559 127
155 559 128
156 559 128
156 560 129
155 560 128
156 561 129
156 562 130
156 560 128
156 562 129
156 561 128
156 563 129
155 558 189
158 559 46
155 559 115
156 559 117
156 559 119
156 560 126
155 560 127
156 559 127
156 560 127
156 562 128
156 561 127
156 563 128
157 564 129
156 562 127
156 564 128
157 565 129
157 564 128
155 559 187
158 560 46
158 561 46
156 560 116
156 561 117
156 560 119
156 561 126
156 563 127
157 565 128
156 564 127
156 562 126
155 561 185
158 562 46
158 563 46
156 561 116
156 561 118
156 562 125
156 565 127
157 565 127
155 561 184
159 562 46
159 561 46
155 562 114
156 562 115
156 563 125
156 563 126
155 562 183
159 563 46
159 564 46
156 563 115
157 563 116
156 564 125
156 564 126
156 565 126
155 563 182
159 565 46
159 560 46
156 564 114
157 564 116
156 565 125
156 566 126
156 566 125
156 565 124
156 564 123
156 564 181
159 567 45
160 565 45
156 566 115
157 565 116
156 565 123
156 566 123
156 563 123
156 567 123
156 562 123
156 568 123
156 565 180
160 566 45
160 567 45
156 566 114
157 566 116
156 566 122
156 565 122
156 567 122
156 564 122
155 561 123
156 566 179
160 568 45
160 569 45
156 567 114
157 567 116
156 568 122
156 569 122
156 563 122
156 561 123
156 567 121
155 567 178
156 567 179
160 570 45
161 568 45
157 568 115
157 567 117
156 568 121
156 569 121
155 570 121
156 566 121
156 570 121
146 571 126
155 569 178
161 567 45
161 571 45
157 569 116
157 569 117
156 569 120
156 568 120
156 565 121
156 570 120
156 567 120
155 569 177
161 572 45
161 573 45
157 570 116
157 570 118
157 570 119
156 566 120
157 569 119
156 564 121
156 565 120
155 570 176
161 571 44
161 570 44
157 571 117
157 571 118
157 569 118
154 571 175
161 572 44
161 573 44
157 573 116
157 572 117
154 572 174
154 572 175
161 574 44
161 575 44
157 573 117
157 574 116
157 570 117
154 573 174
154 574 174
154 573 175
161 576 44
161 577 44
154 575 115
157 575 116
154 575 174
154 574 175
161 578 44
162 575 44
156 576 115
158 574 116
153 575 172
154 576 174
154 575 175
154 576 175
162 576 44
162 577 44
157 576 115
153 575 115
153 576 171
153 576 172
153 576 173
154 577 175
154 576 176
154 575 176
162 578 44
162 579 44
157 577 115
157 575 115
153 577 171
153 577 172
153 577 173
154 578 175
154 577 176
154 578 176
162 580 44
162 574 44
155 578 114
155 577 114
154 579 174
154 579 175
155 578 177
163 579 43
162 575 43
156 578 114
156 584 122
157 582 127
158 581 128
158 581 129
154 580 175
155 580 176
162 583 43
163 580 43
156 584 123
157 583 124
157 583 126
158 582 127
158 582 128
158 581 130
158 580 131
158 581 131
158 581 132
158 581 133
158 580 134
158 581 135
157 581 138
157 580 139
157 581 139
157 581 140
154 581 174
155 581 175
163 581 43
163 582 43
157 584 122
157 583 125
158 583 125
158 581 134
158 581 136
158 581 137
157 582 140
156 581 141
157 581 141
157 581 142
157 582 142
157 581 143
157 582 144
157 582 145
157 582 146
157 583 147
156 583 149
156 583 150
156 584 150
154 581 173
155 582 174
154 581 175
163 583 43
163 584 43
156 585 121
157 584 123
157 584 124
157 582 143
157 583 144
157 583 145
157 583 146
156 584 148
156 584 149
157 584 148
156 584 151
155 584 152
156 584 152
155 585 153
154 584 155
154 582 173
155 583 174
155 582 175
163 585 43
163 586 43
156 585 120
157 585 121
158 584 124
156 585 149
156 585 150
156 585 151
156 585 152
156 585 153
155 585 154
154 584 156
155 585 155
154 585 157
155 583 172
155 583 173
156 583 174
163 587 43
163 588 43
156 585 119
157 585 122
155 586 153
154 585 155
154 585 156
154 586 156
154 585 158
153 584 158
153 584 160
153 586 160
155 584 172
156 584 173
156 584 174
163 585 42
163 589 43
156 586 119
157 586 120
155 586 155
154 586 157
154 586 158
153 585 158
156 585 171
156 585 172
156 585 173
163 590 43
156 586 118
157 586 119
155 587 156
154 587 157
154 587 158
155 586 170
156 586 171
157 586 172
163 587 42
156 586 117
157 587 118
154 587 156
155 588 157
154 587 159
154 588 159
154 588 160
155 587 168
156 587 169
156 587 170
156 586 170
163 588 42
156 587 115
157 587 117
158 586 122
155 589 157
155 589 158
155 589 159
155 589 160
154 588 161
154 588 162
154 588 163
155 588 164
155 588 165
155 588 166
155 588 167
156 588 168
156 588 169
156 589 169
163 589 42
163 590 42
156 589 114
157 589 115
155 590 158
154 589 159
155 590 160
155 589 161
155 589 162
155 589 163
155 589 164
155 589 165
155 589 166
156 589 167
156 589 168
163 591 42
163 592 42
156 590 114
156 590 113
155 590 161
155 591 161
155 590 162
155 590 164
155 590 165
156 590 166
156 590 167
163 595 43
163 593 42
156 591 113
156 592 113
163 594 42
163 595 42
155 592 112
155 593 112
163 596 42
163 599 43
155 593 111
156 593 112
163 597 42
163 600 43
155 594 111
155 595 111
164 595 42
163 601 43
155 596 111
156 595 111
156 595 165
164 596 42
163 602 43
156 596 111
155 597 111
156 596 163
156 596 164
156 596 165
156 596 166
156 596 167
164 597 42
163 603 43
155 598 111
154 597 111
156 597 162
156 597 163
156 597 164
156 597 165
156 597 166
156 597 168
156 597 169
164 598 42
164 599 42
154 598 111
155 599 111
157 598 159
156 598 161
156 598 162
156 598 163
156 598 164
156 598 165
156 598 166
156 598 167
156 598 168
156 598 169
164 600 42
164 601 42
155 599 110
155 600 111
156 600 160
156 599 161
156 599 162
156 599 163
156 599 164
156 600 164
156 599 165
156 599 166
156 599 167
155 599 168
155 599 169
155 599 170
163 606 43
164 602 42
155 600 110
155 601 111
156 601 160
156 600 161
156 601 161
156 600 162
156 600 163
155 601 164
155 600 165
155 600 166
155 600 167
155 600 168
155 600 169
155 600 170
164 603 42
164 604 42
155 602 111
155 602 112
156 602 159
156 602 160
156 602 161
156 601 162
155 602 163
156 601 164
155 601 165
155 601 166
155 601 167
155 601 168
155 601 169
155 601 170
164 605 42
163 609 43
155 603 111
155 603 112
156 603 159
156 603 160
155 602 162
155 603 162
155 603 163
155 602 164
155 602 165
155 602 166
155 602 167
155 602 168
155 602 169
164 606 42
163 610 43
156 603 111
155 604 112
156 604 159
156 603 161
156 603 162
155 604 162
155 603 164
155 603 165
155 603 166
155 603 167
155 603 168
155 603 169
156 603 169
164 607 42
163 611 43
156 604 111
156 604 112
156 605 159
156 604 161
155 604 163
155 604 165
155 604 166
155 604 167
156 604 168
164 610 43
164 608 42
156 605 111
155 605 112
156 605 166
164 611 43
164 609 42
156 606 111
155 606 112
164 612 43
164 610 42
156 607 112
155 607 113
164 613 43
164 611 42
156 608 112
155 608 113
164 614 43
164 615 43
156 609 112
155 609 114
165 614 43
164 616 43
156 610 113
155 611 114
164 618 44
165 615 43
155 612 114
155 611 115
164 617 43
164 619 44
155 612 115
154 612 115
164 618 43
165 616 43
155 613 114
155 613 115
164 620 44
164 619 43
155 614 114
155 614 115
165 617 43
164 620 43
155 615 114
155 615 115
163 623 44
165 618 43
155 616 114
155 616 115
164 621 43
165 619 43
155 617 114
155 617 115
164 622 43
164 624 44
155 618 114
155 618 115
164 623 43
164 625 44
155 619 114
155 619 115
164 624 43
164 626 44
155 620 114
155 620 115
164 625 43
164 627 44
155 621 114
155 621 115
164 626 43
155 622 114
155 622 115
164 628 44
164 629 44
155 623 114
155 623 115
164 630 44
165 624 43
155 624 114
155 624 115
164 631 44
165 625 43
155 625 114
163 633 44
164 632 44
155 626 114
164 634 45
164 633 44
155 627 114
164 634 44
165 628 43
155 628 113
164 635 44
165 629 43
155 629 113
164 637 45
165 634 44
155 630 113
164 636 44
164 638 45
155 631 113
164 637 44
165 635 44
155 632 113
164 639 45
164 638 44
155 633 113
164 640 45
165 636 44
155 634 113
164 639 44
164 641 45
155 635 113
164 642 45
165 637 44
155 636 113
165 641 45
164 643 45
155 637 113
165 642 45
164 644 45
155 638 113
164 646 46
165 643 45
155 639 113
164 647 46
165 644 45
155 640 113
165 646 46
164 648 46
155 641 113
164 649 47
165 647 46
155 642 113
164 649 46
164 650 47
155 643 113
165 645 45
164 651 47
155 644 114
164 652 48
165 648 46
155 645 114
164 652 47
163 654 48
164 653 48
155 646 114
165 651 47
163 655 48
155 647 114
164 654 48
163 656 49
155 648 114
163 657 50
164 655 48
155 649 114
163 657 49
162 659 51
163 658 50
155 650 114
163 658 49
164 656 48
162 660 51
155 651 114
161 661 52
160 662 53
163 659 50
155 652 114
162 661 52
161 662 53
155 653 114
160 663 54
158 664 56
155 654 114
159 664 55
160 663 53
155 655 114
158 665 57
158 665 56
156 656 114
160 664 55
159 665 56
155 658 114
159 665 55
157 666 58
155 658 115
158 666 58
158 666 57
155 659 114
157 667 58
157 667 59
155 660 114
159 666 56
158 667 58
155 661 115
158 667 57
156 668 60
155 662 115
157 668 59
157 668 58
155 663 115
158 668 58
156 669 60
155 664 116
155 669 61
156 669 61
155 665 116
157 669 60
155 670 62
155 666 116
157 669 59
156 670 61
155 667 117
156 670 60
155 671 62
155 668 117
156 671 61
156 671 62
155 669 117
155 671 63
155 672 63
155 670 117
156 672 62
155 673 63
155 671 118
156 672 61
155 673 64
155 672 118
156 673 62
155 674 63
155 674 119
155 674 64
155 675 64
155 674 118
156 675 63
155 675 65
155 675 119
155 675 156
155 675 157
155 675 158
155 675 159
156 676 63
155 676 64
155 677 120
155 676 153
155 676 154
155 676 155
155 676 156
155 676 157
155 676 158
155 676 160
156 677 64
155 677 65
155 677 119
155 677 152
155 677 153
155 677 154
155 677 155
155 677 156
155 677 157
155 677 158
155 677 159
155 677 160
155 677 161
155 678 65
156 678 65
155 678 120
155 678 150
155 678 151
155 678 152
155 678 153
155 678 154
155 678 155
155 678 156
155 678 157
155 678 158
155 678 159
155 678 160
155 678 161
155 678 162
155 678 163
156 679 65
156 679 66
155 679 121
155 679 149
155 679 150
155 679 151
155 679 152
154 678 153
155 679 155
155 679 156
155 679 157
155 679 158
155 679 159
155 679 160
155 679 161
155 679 162
155 679 163
155 679 164
155 678 164
156 680 65
155 680 67
155 680 121
155 680 149
155 680 150
155 680 151
155 681 150
154 678 154
155 680 157
155 680 158
154 680 158
155 680 159
154 680 159
154 681 159
154 680 160
155 680 161
155 680 162
155 680 163
155 680 164
155 680 165
156 681 66
156 681 67
155 681 122
155 681 148
155 681 149
155 682 150
154 681 160
155 681 161
155 681 162
155 682 162
155 681 163
155 681 164
155 681 165
155 681 166
155 681 167
156 682 66
155 683 68
155 682 122
155 682 147
155 682 148
155 682 149
155 683 149
154 682 160
154 682 161
155 683 162
155 682 163
155 682 164
155 682 165
155 683 165
155 682 166
155 682 167
156 683 67
155 682 69
155 683 122
156 684 141
155 683 147
155 683 148
155 684 148
154 683 160
154 683 162
155 683 163
155 683 164
155 684 165
155 683 166
155 683 167
155 684 69
155 685 69
155 683 123
156 685 141
155 684 147
154 684 148
154 684 162
155 684 163
154 684 163
155 684 164
155 685 165
155 684 166
155 684 167
156 685 68
155 685 71
155 685 123
156 686 141
155 685 146
154 685 147
154 684 147
154 685 162
154 685 163
155 685 164
155 686 165
155 685 166
155 685 167
155 686 70
155 687 71
156 686 123
155 686 142
154 686 146
154 686 147
153 686 147
154 686 163
154 686 164
154 687 164
154 686 165
155 686 166
155 686 167
156 687 70
156 687 71
155 688 124
155 687 141
154 687 145
154 687 146
153 687 147
154 688 163
154 687 165
155 687 166
154 687 166
155 687 167
156 688 70
155 688 71
155 689 124
155 688 141
154 688 144
154 688 145
154 688 164
154 688 165
155 688 166
154 688 166
155 688 167
155 688 168
156 689 71
155 689 73
155 690 125
155 689 141
154 689 143
154 689 144
154 689 145
154 689 164
154 689 165
154 689 166
155 689 168
154 689 168
155 689 169
155 689 170
156 690 71
155 690 74
155 691 125
156 690 140
155 690 141
154 690 143
154 691 143
154 690 164
154 690 165
154 690 166
154 690 167
155 690 168
155 690 169
155 690 170
156 691 72
155 691 73
155 691 126
155 691 140
155 691 142
154 691 142
154 691 165
154 691 166
155 691 168
154 691 168
155 691 169
155 691 170
155 692 73
155 693 74
155 692 126
155 692 140
155 692 142
154 692 143
154 692 167
154 692 168
155 692 169
