ply
format ascii 1.0
comment Created by Open3D
element vertex 4107
property double x
property double y
property double z
end_header
137 480 101
137 480 126
138 480 127
138 480 128
138 481 129
137 482 103
138 481 128
137 482 102
137 483 104
138 483 130
138 483 131
137 484 105
137 485 130
138 485 132
137 486 107
138 486 108
138 486 131
138 486 132
138 487 108
138 487 109
138 487 132
138 488 110
138 489 110
136 486 106
139 487 109
138 489 111
138 489 132
138 490 111
138 491 111
138 490 132
138 491 112
138 490 112
138 491 131
138 492 131
138 492 112
138 493 112
138 493 131
138 492 132
138 494 112
138 494 131
138 493 132
138 495 112
138 495 131
138 494 132
138 496 112
137 496 131
139 496 112
139 499 111
140 499 110
140 500 109
140 501 109
141 500 109
140 503 108
141 501 108
141 503 107
141 502 108
137 502 130
141 504 107
141 503 108
141 505 107
137 503 130
141 506 107
137 504 130
141 507 107
142 505 106
138 505 130
141 508 105
142 506 106
138 506 130
142 508 105
142 507 106
138 507 130
142 509 105
142 508 106
137 508 129
138 508 130
142 510 105
142 511 105
138 509 130
142 511 104
142 512 104
137 510 129
142 513 104
142 514 104
137 511 129
142 515 105
143 512 104
137 512 129
142 516 105
143 513 104
137 513 129
142 517 105
143 515 105
137 514 129
138 514 129
143 515 104
143 516 105
137 515 129
142 519 105
142 519 106
137 516 129
142 520 106
143 517 105
137 517 129
142 521 106
143 518 105
137 518 129
142 522 106
143 519 105
137 519 129
142 523 106
143 520 106
137 521 128
142 524 106
143 521 106
138 521 128
141 526 105
141 526 106
138 522 128
142 525 106
141 527 105
137 523 128
142 526 105
142 526 106
137 524 128
141 528 105
142 527 105
137 525 128
140 530 105
141 529 105
138 526 128
141 530 105
140 531 105
137 527 128
139 532 105
139 532 106
137 528 128
137 533 106
138 533 106
137 529 128
137 530 128
137 531 128
137 532 128
137 534 105
137 533 128
138 534 105
138 534 128
137 535 128
137 536 128
137 537 128
137 538 128
137 539 104
137 539 128
137 540 128
137 542 103
137 541 128
138 542 128
137 543 128
137 544 128
137 545 103
137 545 128
137 546 128
137 547 128
137 548 128
137 549 101
137 549 128
137 550 128
137 551 128
137 552 101
137 552 128
137 553 100
137 553 128
137 554 128
137 555 128
137 557 127
137 557 99
138 557 127
137 558 99
137 559 127
137 560 127
137 561 127
137 561 98
137 561 128
137 562 98
137 562 128
137 563 98
137 563 128
137 564 98
138 564 128
137 566 128
137 567 128
137 567 97
137 568 128
137 568 97
137 569 128
137 569 97
137 570 128
137 571 128
136 571 128
137 572 96
137 572 128
137 573 96
137 573 128
137 574 96
137 575 127
137 576 127
137 576 95
137 577 127
137 577 95
138 577 127
137 578 95
137 578 127
137 579 95
137 579 127
137 580 127
137 581 94
138 581 127
137 582 94
137 582 127
137 583 94
137 583 127
137 584 94
137 584 127
137 585 94
137 584 126
137 586 94
137 586 126
137 587 126
137 588 93
137 588 126
137 589 93
137 589 126
137 591 126
138 591 126
137 592 125
137 593 93
137 593 126
137 594 93
137 595 126
137 595 92
137 596 126
137 596 92
138 596 126
137 597 126
137 598 126
137 599 126
137 600 92
137 600 126
137 601 92
137 602 126
137 602 92
137 603 126
137 603 91
138 603 126
137 604 91
138 604 126
137 605 91
137 605 126
137 606 91
137 606 126
137 607 126
137 608 126
137 609 126
137 610 126
137 611 126
137 612 126
137 613 127
137 614 127
137 615 127
137 616 90
137 616 127
137 617 90
137 617 127
137 618 90
137 618 127
137 619 127
137 620 127
137 621 90
136 621 90
137 622 128
137 622 90
137 623 90
137 622 127
137 623 127
137 624 127
137 625 127
137 626 127
137 627 127
137 628 89
137 628 90
137 628 127
137 629 89
137 630 89
137 629 127
137 631 89
137 630 90
137 630 126
138 631 88
137 631 90
137 631 126
137 632 89
137 632 126
137 634 127
137 635 87
137 635 88
137 635 127
138 635 87
137 636 88
137 635 126
137 636 87
137 637 88
137 636 126
137 637 87
137 637 126
137 638 86
137 639 87
137 638 126
137 639 86
137 639 126
137 640 84
137 640 86
137 640 126
137 640 83
138 640 83
137 639 85
137 639 84
136 641 126
137 641 81
138 641 81
137 640 82
138 640 82
138 639 84
136 642 126
138 643 79
138 642 80
138 641 80
138 639 83
137 643 125
138 644 78
139 643 79
138 642 79
139 641 80
138 640 81
138 639 82
137 644 126
139 645 78
139 644 78
140 644 79
139 642 79
140 643 79
140 641 80
137 645 126
138 646 77
139 646 77
140 646 78
140 645 78
137 646 126
139 647 77
137 647 126
137 648 76
137 648 126
138 649 76
138 649 126
137 650 75
139 650 76
137 650 127
137 651 75
138 651 127
138 652 74
138 652 75
138 651 75
138 652 127
138 653 74
138 653 127
138 654 74
138 655 74
138 654 128
138 656 74
138 655 128
137 657 74
138 657 74
139 656 127
138 658 74
138 657 128
139 658 74
138 660 74
139 659 127
138 661 73
139 660 126
138 661 74
138 661 128
138 662 73
138 662 128
138 662 74
138 663 128
138 663 73
138 664 127
138 664 73
138 665 73
138 665 127
138 666 73
139 665 73
138 666 127
138 667 72
138 667 127
138 667 73
138 667 128
138 668 72
138 668 128
138 669 72
138 670 72
138 669 128
138 671 72
137 672 72
137 670 128
138 672 72
137 671 128
138 673 72
137 672 129
139 673 72
137 673 129
139 674 72
137 674 129
139 675 72
137 675 129
139 676 72
137 676 129
139 677 73
137 677 129
139 678 73
137 678 129
139 679 73
137 680 130
139 680 73
138 680 130
139 681 73
137 681 130
139 682 73
139 683 73
137 682 130
139 684 73
139 683 74
137 683 131
139 684 74
137 684 131
139 685 74
137 685 132
139 686 74
139 686 75
137 686 132
139 687 75
137 687 132
139 688 75
138 688 132
138 690 76
137 689 133
138 691 76
137 690 133
139 693 75
136 691 133
139 694 75
137 693 134
139 693 76
138 693 134
139 694 76
137 694 135
139 696 75
137 695 135
139 697 75
137 696 135
139 697 76
137 697 135
139 698 76
137 698 136
139 699 76
137 699 136
139 700 76
137 700 136
139 701 76
137 701 136
139 702 76
137 702 137
139 703 76
137 703 137
139 704 76
137 704 137
139 705 77
139 706 77
137 705 138
139 707 77
137 706 138
139 708 77
137 707 138
139 709 77
137 708 138
139 710 77
137 709 138
139 711 77
137 710 139
139 711 78
137 711 139
139 710 78
140 712 78
137 712 139
140 713 78
137 713 139
140 714 79
137 714 140
140 715 79
140 716 79
137 715 140
140 717 79
137 716 140
140 717 80
137 717 140
140 716 80
140 719 81
140 718 81
140 720 82
137 720 141
140 721 82
137 721 141
140 722 83
140 723 83
137 722 141
141 721 82
140 724 84
140 723 84
140 725 85
137 725 142
140 726 85
137 726 142
139 726 86
140 727 86
136 726 142
140 726 86
137 728 143
140 729 87
140 728 87
137 729 143
141 729 87
137 730 143
140 731 88
140 732 88
137 731 144
140 730 88
141 732 88
137 732 144
137 732 145
141 733 88
141 734 88
137 733 145
141 735 88
141 734 89
137 734 145
141 735 89
136 734 145
137 735 146
141 736 89
141 737 89
137 736 146
141 738 89
137 737 146
137 737 147
141 739 89
142 738 89
138 737 147
137 738 148
142 739 89
141 742 89
138 739 148
138 738 148
137 737 148
141 743 89
142 740 89
138 741 149
139 740 149
142 741 89
139 741 149
139 742 149
142 742 89
139 743 149
139 743 150
142 743 89
139 744 150
139 744 151
142 744 89
142 745 89
139 744 152
142 746 89
142 747 89
139 745 151
139 745 152
142 748 89
143 746 89
138 747 153
138 746 154
143 747 89
143 747 90
139 746 152
138 747 154
143 750 89
143 748 90
138 749 152
138 748 154
143 749 90
143 750 90
138 749 153
137 750 153
143 751 90
137 751 152
137 751 153
142 754 90
137 752 152
138 751 153
143 752 90
143 753 90
137 752 153
137 752 154
137 752 155
137 753 155
137 752 156
137 752 157
137 752 158
143 754 90
137 753 153
137 753 154
137 754 154
137 754 155
137 753 156
137 753 157
137 753 158
143 755 90
137 754 153
137 755 154
137 755 155
137 754 156
137 754 157
137 754 158
143 756 90
137 755 153
136 755 154
137 755 156
136 755 156
136 755 157
137 755 158
143 757 90
136 756 156
136 756 157
136 756 158
137 756 159
143 758 90
143 759 90
135 758 154
136 757 158
137 757 159
143 760 90
143 761 90
136 758 159
143 761 91
136 759 159
143 762 90
137 760 160
143 762 91
137 761 160
143 763 90
137 762 160
143 763 91
143 764 91
137 763 160
143 765 91
143 766 91
137 764 161
143 767 91
137 765 161
143 767 92
143 768 91
137 766 161
143 769 91
143 768 92
137 767 161
143 769 92
137 768 161
143 770 91
137 769 161
143 770 92
137 770 161
142 774 92
143 771 92
137 771 161
142 775 92
143 772 92
137 772 161
143 773 92
138 773 162
143 774 92
138 774 162
142 778 92
138 775 162
142 779 93
143 776 93
137 776 161
142 780 93
143 777 93
138 777 162
142 781 93
138 778 162
143 779 93
138 779 162
142 783 93
138 780 162
142 784 94
137 782 162
142 785 94
143 782 93
137 783 162
142 786 94
138 783 162
141 788 94
138 784 162
142 787 94
137 785 162
142 788 94
137 786 162
141 790 95
142 789 95
137 787 162
141 791 95
138 788 162
141 792 96
141 793 97
137 789 161
141 793 96
138 790 162
141 794 97
141 794 96
137 791 161
141 795 97
138 792 162
141 796 97
141 797 98
137 793 162
141 797 97
137 794 162
141 798 98
137 795 162
141 799 98
137 796 162
141 800 99
137 797 162
138 797 162
141 800 98
137 798 161
138 798 162
140 802 99
141 801 99
138 799 162
140 803 100
138 800 162
140 804 100
138 801 162
140 803 99
140 805 100
138 802 162
139 801 163
140 806 101
138 803 161
139 803 162
141 805 101
138 804 160
139 804 162
139 805 162
140 808 102
141 806 101
138 805 160
139 805 161
141 808 102
138 806 160
139 806 161
140 810 104
138 807 159
139 807 161
140 810 103
140 811 104
138 809 159
139 812 104
140 812 104
138 810 159
140 813 105
138 811 159
139 814 106
138 811 158
139 815 108
139 812 158
139 815 107
139 813 158
139 816 108
138 815 157
139 814 158
139 817 109
138 816 157
139 818 110
138 817 157
139 818 109
138 817 156
139 819 110
139 818 156
139 819 111
138 820 154
139 819 156
139 820 111
138 821 154
139 821 111
138 821 113
138 822 154
139 821 155
139 822 112
137 822 115
138 822 153
139 823 113
138 823 115
137 823 116
138 823 153
138 824 152
139 824 153
138 825 151
139 825 152
138 826 117
138 826 150
139 826 151
138 827 118
138 826 118
137 827 119
138 827 149
139 827 151
138 828 119
137 828 120
137 827 120
137 828 121
137 829 122
137 829 123
137 830 124
135 829 125
135 829 126
136 830 126
137 831 127
134 829 128
134 830 129
135 831 131
136 830 142
137 830 143
136 829 144
137 829 145
136 828 145
137 828 147
138 828 148
138 828 149
139 828 150
136 830 125
137 831 126
137 832 136
137 832 137
136 831 139
137 831 140
135 830 140
138 830 122
138 831 126
137 832 129
137 832 130
137 832 131
137 832 133
137 832 134
137 830 144
138 830 145
138 830 146
138 829 147
137 831 124
138 833 133
137 832 135
138 833 135
138 833 136
137 832 138
138 832 139
138 832 140
138 832 141
138 831 142
137 831 143
138 831 143
138 831 145
139 831 146
138 832 128
138 832 129
138 832 143
138 831 144
139 832 145
138 833 130
138 833 131
138 833 132
138 833 134
139 833 134
139 833 135
139 833 136
139 833 137
139 833 138
139 832 143
139 832 144
138 833 129
139 834 131
139 834 132
139 834 133
139 833 133
140 834 135
140 834 136
139 833 141
139 833 142
139 832 142
139 473 108
139 472 109
138 472 111
139 472 111
139 473 106
139 473 107
139 473 109
139 473 110
139 472 110
138 473 112
138 473 113
137 473 113
138 475 106
138 474 107
138 473 114
137 473 115
138 473 116
137 473 116
138 475 104
138 475 105
138 474 118
137 475 119
138 475 120
138 476 103
137 476 105
138 476 122
139 476 124
137 476 103
138 477 125
138 478 125
138 478 101
137 478 102
137 477 102
138 478 126
139 478 126
139 478 127
139 479 128
138 479 101
139 479 127
139 480 128
139 479 129
139 480 129
139 481 129
138 481 102
138 482 130
138 482 103
139 482 130
139 482 131
138 483 104
139 483 131
139 483 132
138 484 131
139 484 132
138 484 106
139 486 109
139 487 110
139 488 110
138 488 132
139 488 111
139 487 111
139 488 132
139 489 111
139 489 112
139 489 132
138 486 107
139 490 112
139 491 112
139 490 132
139 493 112
139 491 113
138 491 132
139 491 132
139 494 112
139 492 113
139 492 132
140 494 112
139 495 112
139 493 132
139 494 132
140 495 112
140 496 112
139 493 113
139 495 131
139 497 112
140 497 112
138 496 131
140 498 111
141 497 111
138 497 131
141 498 110
141 498 111
139 497 131
141 499 110
141 497 112
138 498 131
142 499 109
138 499 131
142 500 108
142 500 109
138 500 130
142 501 108
142 502 107
142 503 107
142 502 108
138 502 130
142 504 106
138 503 130
142 504 107
142 505 107
138 504 130
142 506 107
139 505 130
143 506 106
139 506 130
143 507 105
139 507 130
143 508 105
138 508 129
143 509 105
138 510 130
143 510 104
139 510 130
143 511 104
138 511 130
143 514 104
138 512 130
144 513 104
138 513 129
144 514 104
139 514 129
144 515 105
138 515 129
144 516 105
138 516 129
143 520 105
138 517 129
144 518 105
138 518 129
139 518 129
143 522 106
139 520 128
143 523 106
139 521 128
143 524 105
139 522 128
143 524 106
138 523 128
143 525 105
139 523 128
143 525 106
138 524 128
142 528 105
143 526 105
138 525 128
142 529 105
143 527 105
139 526 128
141 530 104
138 527 128
142 529 104
138 528 128
140 532 105
138 529 128
138 530 128
138 531 128
139 533 105
138 532 128
139 534 105
138 533 128
139 534 128
138 535 128
138 536 128
138 537 128
138 538 104
138 538 128
138 539 104
138 539 128
138 540 104
138 540 128
138 541 128
139 542 128
138 543 128
138 544 103
138 544 128
138 546 102
138 545 128
140 546 127
138 546 128
138 547 128
138 548 102
138 548 128
138 549 128
138 550 128
138 551 101
138 551 128
138 552 100
139 552 127
139 553 127
138 554 127
138 555 100
138 555 127
138 556 99
138 556 127
138 557 99
139 557 126
138 558 127
138 559 99
138 559 127
138 560 98
139 560 126
138 561 98
138 561 127
138 562 98
138 562 127
138 563 127
139 564 127
138 565 98
139 565 127
138 566 97
138 566 128
138 567 97
138 567 128
138 568 97
138 568 128
138 569 97
138 569 128
138 570 96
138 570 128
138 571 96
138 571 128
138 572 96
138 572 128
138 573 128
139 574 95
138 575 127
138 575 95
138 576 127
138 576 95
139 576 127
139 577 94
138 577 95
139 577 127
139 578 94
138 578 127
138 579 94
138 579 127
138 580 94
138 580 127
138 581 94
139 581 127
138 582 94
138 582 127
138 583 94
138 583 127
138 584 126
138 585 126
138 586 93
138 586 126
138 587 93
138 587 126
138 588 93
138 588 126
138 589 126
138 590 126
138 591 93
138 591 125
139 592 92
138 592 125
138 593 126
138 594 126
139 595 91
138 595 126
139 596 91
139 596 126
138 597 91
138 597 126
138 598 92
138 598 126
139 599 91
138 599 126
138 600 92
138 600 126
138 602 91
139 602 125
138 602 92
139 603 125
138 603 91
139 604 125
138 604 91
138 605 126
139 605 90
139 605 125
138 606 91
139 606 125
138 607 91
139 607 125
138 608 91
138 608 126
138 609 91
138 609 126
138 610 91
138 610 126
138 611 91
138 611 126
139 612 91
138 612 126
138 613 91
138 613 126
138 614 91
138 614 126
138 615 91
138 615 126
138 616 91
138 616 126
138 617 90
138 617 127
138 618 127
138 619 127
138 620 127
138 621 127
138 622 127
138 623 127
139 625 89
138 624 90
138 624 127
138 626 89
138 625 90
138 625 127
139 627 88
138 626 90
138 626 127
138 627 89
139 627 89
138 627 127
138 628 127
138 629 126
139 630 88
138 630 126
139 631 87
138 631 89
138 631 126
138 633 87
138 632 88
138 632 126
138 634 87
138 633 88
138 633 126
138 634 88
138 634 126
138 635 86
138 635 126
138 636 86
138 636 126
138 637 86
138 637 125
138 638 85
138 637 85
138 638 125
138 638 83
138 638 84
137 638 85
138 639 125
138 640 80
138 639 81
138 638 82
138 637 84
138 637 83
138 640 125
139 640 80
139 639 81
139 638 82
138 641 125
140 642 79
140 641 79
140 640 80
139 639 80
140 639 81
139 638 81
138 642 125
140 644 78
141 643 79
141 642 79
141 641 80
141 644 79
141 640 80
138 643 125
141 644 78
138 644 125
140 647 77
138 646 126
138 648 76
139 648 77
138 646 125
140 648 77
139 649 76
138 647 126
140 649 77
138 648 126
138 650 75
139 649 126
139 650 126
139 651 76
139 651 126
137 651 74
139 654 74
139 652 75
139 652 127
139 653 75
139 653 127
139 655 74
139 654 127
139 655 75
139 655 127
139 656 74
140 656 127
139 657 74
140 658 126
139 658 75
139 658 128
139 659 74
139 660 127
139 660 74
139 661 126
139 661 74
139 662 74
139 662 126
139 663 73
139 663 74
139 663 126
139 664 73
139 664 74
139 663 127
139 665 74
139 664 126
139 666 73
139 665 127
139 667 73
139 666 127
138 668 73
139 668 73
139 667 127
139 669 73
140 668 73
138 668 127
139 670 73
140 669 73
138 669 127
139 671 73
138 670 128
139 672 73
138 671 128
139 673 73
138 672 128
139 674 73
140 673 73
138 673 128
139 675 73
140 674 73
138 674 128
139 676 73
138 675 128
140 676 73
138 677 129
140 677 73
138 678 129
140 678 73
139 678 129
140 679 73
140 680 73
138 679 129
140 681 73
140 681 74
138 681 130
140 682 74
139 681 130
140 683 74
138 682 130
140 684 74
140 685 74
138 683 131
140 685 75
138 684 131
140 686 75
138 685 131
140 687 75
138 686 132
139 688 76
138 687 132
139 689 76
140 688 76
138 688 133
139 690 76
138 689 133
139 691 76
138 690 133
139 692 76
138 691 134
140 692 76
138 692 134
140 693 76
139 693 134
139 695 76
138 694 135
139 696 76
140 695 76
138 695 135
140 696 76
138 696 135
140 697 76
138 697 135
140 698 76
138 698 136
140 699 76
138 699 136
139 701 77
138 700 136
139 702 77
138 701 136
139 703 77
138 702 137
139 704 77
138 703 137
140 704 77
138 704 137
140 705 77
138 705 138
140 706 77
138 706 138
140 707 77
138 707 138
139 709 78
138 708 138
140 709 78
138 709 138
140 710 78
138 710 139
140 711 78
138 711 139
140 712 79
140 713 79
138 712 139
141 713 79
141 712 79
138 713 139
140 715 80
138 714 140
141 715 80
138 715 140
141 716 80
141 716 81
138 716 140
141 717 81
138 717 140
141 718 81
141 719 82
141 720 82
138 719 141
141 718 82
141 720 83
138 720 141
141 721 83
141 722 83
140 722 84
141 722 84
140 724 85
140 723 85
138 724 142
141 723 85
140 725 86
137 724 142
140 724 86
141 726 86
140 727 87
138 727 143
141 728 87
138 728 143
141 727 87
141 729 88
138 729 144
141 730 88
138 730 144
141 731 88
141 732 89
138 731 144
141 733 89
138 732 145
142 733 89
142 732 89
138 733 145
138 733 146
142 734 89
138 734 146
142 735 89
138 735 146
138 735 147
142 736 89
142 737 89
138 736 147
143 737 89
139 736 147
138 737 148
143 738 89
143 739 89
139 737 148
139 738 149
143 740 89
143 741 89
139 739 149
143 741 90
140 741 149
140 740 150
140 741 150
143 742 89
143 742 90
140 742 150
140 742 151
143 743 89
143 743 90
140 743 150
140 742 152
143 744 89
140 743 151
139 744 153
143 745 89
139 745 153
139 744 154
143 745 90
139 745 154
143 746 90
143 744 90
139 746 153
139 746 154
144 747 90
144 746 90
138 747 155
138 746 155
138 748 155
144 748 90
138 749 154
138 749 155
138 748 156
144 749 90
138 750 153
138 750 154
138 750 155
138 749 156
138 749 157
144 750 90
138 750 152
138 751 154
137 750 155
138 750 156
138 750 157
138 750 158
144 751 90
137 751 154
137 751 155
137 751 156
137 750 156
137 751 157
138 751 158
144 752 90
137 754 152
137 750 157
137 751 158
137 750 158
138 752 159
138 752 160
144 753 90
138 753 160
144 754 91
137 754 159
144 755 91
144 756 91
137 755 159
144 757 91
137 756 160
138 756 161
144 758 90
138 757 161
144 758 91
138 758 161
144 759 91
138 759 161
144 760 91
138 760 161
138 761 161
144 761 91
144 762 91
137 761 161
144 763 91
144 764 91
138 762 161
144 765 91
138 763 161
144 764 92
138 764 161
144 765 92
138 765 161
144 766 92
144 767 92
144 768 92
144 769 92
138 767 162
144 770 92
138 768 162
144 771 92
138 769 162
144 772 92
138 770 161
144 773 92
143 775 92
139 771 162
144 774 92
143 776 92
139 772 162
144 774 93
139 773 162
143 777 92
139 774 162
143 778 93
138 776 162
144 775 92
144 776 93
139 776 162
143 780 93
144 777 93
139 778 163
143 781 93
139 779 163
144 779 93
139 780 163
143 783 93
139 781 164
143 784 93
139 782 164
143 784 94
143 785 94
139 783 164
143 785 93
139 783 163
143 786 94
139 784 164
143 787 94
139 785 164
142 789 94
142 790 95
138 786 162
143 788 94
138 787 162
142 791 95
142 792 96
139 788 163
142 792 95
138 789 162
142 793 96
143 790 95
139 790 163
142 794 96
138 792 163
142 795 97
142 795 96
139 792 163
142 796 97
142 796 96
138 793 163
142 797 97
138 794 163
140 794 166
142 798 97
142 799 98
138 795 163
142 799 97
138 796 163
139 795 164
141 801 98
139 797 163
140 797 165
142 800 98
139 798 163
140 798 164
141 802 99
142 801 98
139 799 163
140 799 164
141 803 99
139 800 163
141 804 100
139 801 162
141 804 99
141 805 100
139 802 162
141 806 100
138 802 161
141 807 101
139 804 161
141 808 101
142 807 101
139 806 160
140 805 162
141 809 102
139 807 160
141 810 103
139 808 160
139 808 161
140 811 103
141 810 102
139 809 160
141 811 103
139 809 159
141 812 104
139 810 159
140 813 104
140 814 106
139 811 159
140 814 105
140 815 107
139 812 159
140 815 106
139 813 159
140 816 107
139 817 108
139 815 157
140 817 108
140 817 107
139 815 158
140 816 106
140 818 109
139 816 157
140 818 108
139 817 157
140 819 109
140 819 110
139 818 157
139 820 110
139 820 156
140 820 110
139 820 112
139 820 155
139 821 112
139 821 154
139 822 154
139 822 113
139 823 154
140 823 112
139 823 114
139 823 153
140 823 154
139 824 114
139 824 152
139 825 153
140 824 113
139 825 115
139 826 152
138 825 116
139 827 150
139 826 116
139 827 117
139 828 149
140 827 151
139 828 118
139 827 118
139 828 119
138 828 120
139 829 149
140 828 150
138 829 120
138 829 121
138 830 123
139 830 123
138 829 148
139 829 148
138 830 124
138 831 125
137 831 125
138 832 127
139 830 146
139 830 147
139 830 148
138 832 126
139 832 127
137 832 127
139 833 129
139 833 130
139 833 131
139 833 132
140 834 133
140 834 134
140 834 137
139 833 139
139 833 140
139 832 141
140 833 140
140 833 141
138 830 144
139 831 144
139 831 145
140 832 145
138 829 146
140 831 147
138 833 128
139 834 130
140 834 131
140 834 132
141 834 132
141 834 135
141 834 136
140 834 140
140 833 142
140 832 143
140 832 144
140 833 144
140 832 146
140 831 146
140 830 147
139 833 128
140 834 138
140 834 139
141 834 138
140 834 141
140 834 142
140 833 143
141 833 145
141 835 138
141 834 139
141 834 140
141 834 144
141 833 144
140 471 108
140 471 109
139 471 110
140 473 106
140 472 107
140 472 108
140 472 109
140 471 110
139 472 112
138 472 112
140 473 105
139 474 106
140 473 107
138 472 113
138 472 114
139 472 115
139 474 105
139 474 107
139 473 117
138 473 117
139 473 118
139 475 103
139 475 104
138 474 119
139 474 120
139 475 121
139 475 122
139 475 123
140 475 124
139 476 102
139 476 123
139 476 125
140 476 125
139 476 101
138 476 102
139 478 100
138 477 101
137 478 101
139 481 101
140 480 130
139 481 102
139 481 130
140 481 131
138 482 102
140 482 131
140 482 132
138 483 105
139 485 132
139 486 132
140 485 133
138 485 107
139 486 108
140 486 110
139 487 132
140 486 109
140 487 110
139 487 133
140 488 111
140 487 111
140 488 133
139 488 112
140 488 112
140 489 133
139 485 108
139 490 113
140 490 113
140 490 133
137 485 106
140 491 113
140 492 113
141 494 112
140 493 113
141 492 113
140 492 132
142 496 111
141 495 112
140 494 113
140 493 132
141 496 112
141 494 113
140 494 132
142 497 111
140 496 113
142 498 110
142 496 112
142 499 108
142 499 110
143 498 109
143 498 110
143 499 108
143 499 109
143 500 108
143 501 107
143 500 107
143 502 107
143 503 107
139 502 130
143 503 106
139 503 130
143 504 106
143 505 106
139 504 130
143 507 106
140 505 131
144 506 105
140 506 130
144 507 105
140 507 130
144 508 105
139 508 130
144 509 104
139 509 130
144 510 104
140 510 130
144 511 104
139 511 130
144 512 104
139 512 130
144 515 104
139 513 130
144 517 105
139 514 130
145 515 104
139 515 129
144 519 105
139 516 129
144 520 105
139 517 129
144 521 105
139 519 129
144 522 105
140 520 128
144 523 105
140 521 128
144 524 105
140 522 128
144 525 105
140 523 128
144 526 105
139 524 128
144 526 104
139 525 128
143 528 105
140 525 128
143 528 104
139 527 128
142 530 104
139 528 128
141 531 104
139 529 128
142 531 104
139 530 128
139 531 128
139 533 106
139 532 128
140 533 104
139 533 128
140 533 128
139 535 128
139 536 128
139 537 128
139 537 104
140 537 127
139 538 104
139 538 128
139 539 128
139 540 128
139 541 128
140 542 127
140 541 127
139 543 103
139 543 128
139 544 103
139 544 128
139 545 128
139 546 128
139 547 102
139 547 128
139 548 101
139 548 128
139 549 128
140 550 127
139 551 100
139 551 127
140 552 127
140 553 126
139 554 100
139 554 127
139 555 99
139 555 127
139 556 99
139 556 126
139 557 99
139 558 126
139 558 98
140 558 126
139 559 98
139 559 126
139 560 98
139 560 127
139 561 97
139 561 127
139 562 97
139 562 127
139 563 97
139 563 127
139 564 97
140 564 127
139 565 97
140 565 127
139 566 97
140 566 127
140 567 127
139 568 96
140 568 127
139 569 96
139 569 128
139 570 96
139 570 128
139 571 96
140 570 128
139 572 96
139 573 128
140 573 95
139 574 128
139 574 96
139 575 128
140 575 94
139 575 95
138 575 128
140 576 94
139 576 128
140 577 94
139 578 127
139 578 95
139 579 127
139 579 94
139 580 127
139 580 94
140 580 127
140 581 126
139 582 93
139 582 127
139 583 93
139 583 126
139 584 93
139 584 126
139 585 93
139 585 126
139 586 93
139 586 126
139 587 93
139 587 126
139 588 126
139 589 92
139 589 126
139 590 92
139 590 126
139 591 126
140 592 91
140 593 91
139 591 125
140 594 91
139 593 92
139 593 126
140 595 90
139 594 92
139 594 126
140 596 90
140 595 91
139 595 126
140 596 91
139 597 91
140 596 126
140 597 90
139 598 91
139 597 126
140 598 90
139 598 126
139 600 91
139 599 126
140 600 91
140 601 125
140 601 90
140 602 125
140 602 90
140 603 125
140 603 90
140 604 125
139 604 90
139 605 126
139 605 91
140 605 125
139 606 90
140 606 125
139 607 91
139 607 126
139 608 125
139 609 125
139 610 125
139 611 125
139 612 125
139 613 126
139 614 126
139 615 126
139 616 126
139 618 127
139 618 126
139 619 90
139 619 127
139 620 90
139 620 127
139 621 90
139 622 90
139 621 127
140 623 89
139 623 90
139 622 127
140 624 89
138 623 90
139 623 127
140 625 89
139 624 127
139 626 89
139 625 127
140 627 88
139 626 127
139 628 88
139 627 127
140 628 87
140 628 88
139 628 126
140 629 87
139 629 88
139 629 126
139 630 87
139 630 126
140 631 87
139 631 126
139 632 87
139 632 125
139 633 87
139 633 125
139 634 86
139 634 125
139 635 86
139 635 125
138 636 85
138 636 87
139 636 125
139 636 84
138 636 84
139 637 125
139 637 82
139 637 83
139 636 83
139 635 85
139 638 124
140 638 81
139 637 81
139 636 82
139 639 124
140 639 80
141 639 80
141 641 79
140 637 81
141 637 81
140 636 82
139 640 124
142 641 79
142 640 79
142 640 80
142 642 79
141 638 80
142 639 80
139 641 124
142 643 79
139 642 124
141 645 78
142 644 78
139 643 124
141 646 78
142 645 78
139 644 124
141 647 77
139 645 125
139 646 125
141 647 78
139 647 125
140 650 76
141 648 77
139 648 125
139 651 75
141 649 77
140 649 125
140 651 76
141 650 76
140 650 126
140 652 75
140 652 76
140 651 126
136 651 74
140 653 75
139 654 75
140 652 126
140 654 75
140 653 126
140 655 75
140 654 126
139 656 75
141 655 126
139 657 75
141 657 125
140 657 75
141 658 125
140 658 75
139 659 75
140 659 126
140 659 75
140 660 75
140 660 125
140 660 74
140 661 125
140 661 74
140 662 125
140 662 74
140 662 126
140 663 74
140 663 126
140 664 74
139 664 127
140 666 73
140 665 74
139 665 126
140 666 74
140 667 74
139 666 126
140 667 73
139 667 126
141 668 73
139 668 127
140 670 73
141 669 73
139 669 127
140 671 73
139 670 127
140 672 73
139 671 127
141 672 73
141 673 73
139 672 127
140 675 73
139 673 127
141 674 73
139 674 127
141 675 73
139 675 128
141 676 73
139 676 128
141 677 73
139 677 128
141 678 73
139 678 128
141 679 73
139 679 129
141 680 73
139 680 129
141 681 74
139 682 130
141 682 74
141 683 74
139 683 130
141 684 74
139 683 131
141 684 75
139 684 131
141 685 75
141 686 75
139 685 131
140 687 76
141 686 76
139 686 132
141 687 76
139 687 132
140 689 76
139 688 132
140 690 76
139 689 133
140 691 76
139 690 133
141 691 76
140 691 133
141 692 76
140 694 76
139 692 134
141 693 76
140 693 134
141 694 76
140 694 134
141 695 76
139 695 135
140 697 77
139 696 135
140 698 77
139 697 135
140 699 77
141 698 77
139 698 136
140 700 77
139 699 136
140 701 77
139 700 136
140 702 77
140 701 136
140 703 77
139 702 137
140 703 78
139 703 137
140 704 78
140 705 78
139 704 137
140 706 78
141 705 78
139 705 138
140 707 78
139 706 138
140 708 78
139 707 138
141 708 78
139 708 138
141 710 78
139 709 138
141 711 78
139 710 139
141 711 79
141 710 79
139 711 139
141 712 80
139 712 139
141 713 80
139 713 139
141 714 80
141 714 81
139 714 140
141 715 81
142 715 81
139 715 140
141 717 82
139 716 140
142 717 82
139 717 140
142 718 82
141 719 83
142 719 83
139 719 141
141 720 84
141 721 84
142 720 84
141 722 85
142 722 85
141 723 86
139 723 142
141 724 86
141 725 86
140 723 142
141 725 87
141 724 87
141 726 87
142 725 87
139 726 143
141 727 88
141 728 88
139 727 143
141 726 88
142 728 88
139 728 144
142 729 88
142 730 88
139 729 144
142 727 88
142 730 89
139 730 144
142 731 89
142 729 89
139 731 145
143 732 89
143 731 89
139 732 145
143 733 89
139 733 146
143 734 89
143 735 89
139 734 146
139 734 147
143 736 89
139 735 147
140 735 147
143 736 90
139 736 148
144 737 90
144 736 90
138 736 148
139 737 149
144 738 90
140 738 149
140 738 150
144 739 90
140 739 150
141 739 151
144 740 90
141 740 151
141 740 152
144 741 90
141 741 151
141 741 152
140 741 153
144 742 90
140 743 152
140 742 153
144 743 90
140 744 152
139 743 154
144 744 90
140 744 153
139 744 155
144 745 90
139 745 155
139 746 155
144 746 91
138 746 156
139 745 156
144 747 91
138 747 156
138 747 157
138 748 157
144 748 91
138 746 157
138 748 158
138 749 158
138 747 158
144 749 91
138 749 159
139 749 160
144 750 91
138 750 159
144 751 91
138 751 159
139 751 161
144 752 91
139 752 161
144 753 91
139 753 161
145 754 91
145 753 91
139 754 161
145 755 91
138 755 160
139 755 161
145 756 91
139 756 162
145 757 91
139 757 162
145 758 91
139 758 162
145 759 91
139 759 162
145 760 91
145 761 91
139 760 162
145 761 92
145 760 92
139 761 162
145 762 92
139 762 162
145 763 92
139 763 162
145 764 92
139 764 162
145 765 92
139 765 162
140 765 163
145 766 92
145 767 92
139 766 162
140 766 163
145 768 92
145 767 93
139 767 162
145 769 92
140 768 163
145 770 92
140 769 163
145 770 93
139 770 162
145 771 93
145 772 93
144 775 93
145 773 93
140 772 163
145 774 93
140 773 163
145 775 93
140 774 163
144 778 93
140 775 163
145 776 93
145 777 93
140 776 163
144 780 93
145 778 93
140 777 164
144 781 93
140 779 165
144 782 93
140 780 165
144 783 93
140 781 165
144 784 93
140 782 165
144 785 93
145 782 93
140 782 166
144 786 93
140 783 165
144 787 94
140 784 165
144 787 93
140 785 165
143 789 94
144 788 94
139 786 164
140 786 165
143 790 94
139 787 164
140 787 165
143 791 95
144 789 94
139 788 164
143 792 95
139 789 164
143 793 95
140 790 164
143 794 96
144 791 95
139 791 164
143 794 95
139 792 164
140 792 166
143 795 96
143 796 96
139 793 164
140 793 166
143 795 95
143 797 96
139 794 164
140 794 165
143 798 97
140 795 164
140 795 165
140 796 165
143 798 96
143 799 97
140 796 164
141 796 166
143 800 97
140 797 164
141 797 166
142 802 99
140 798 163
141 798 165
141 797 165
142 802 98
140 799 163
140 800 164
142 803 99
140 800 163
142 803 98
142 804 99
140 801 163
142 805 100
140 802 163
142 805 99
140 803 163
142 806 100
140 804 162
142 807 100
140 806 162
142 808 101
140 806 161
142 808 100
140 807 161
142 809 101
142 810 102
140 809 160
141 811 102
139 810 160
141 812 103
140 811 159
141 813 104
141 813 103
140 812 159
141 814 104
140 813 159
140 815 105
141 815 105
140 814 158
141 816 106
140 815 158
141 817 107
140 816 157
141 817 106
141 818 108
139 816 158
141 818 107
141 819 109
140 817 157
141 819 108
140 818 156
141 820 109
140 820 111
140 819 156
140 821 111
140 821 112
140 820 155
140 822 112
140 822 154
140 821 155
140 822 113
140 822 155
140 823 113
140 824 114
140 824 153
140 824 154
140 825 114
140 825 152
140 825 153
139 824 115
140 826 152
140 826 115
140 827 152
141 827 115
140 827 116
139 826 117
140 828 149
140 828 151
140 828 117
140 827 117
140 828 118
140 829 118
139 829 119
140 829 149
141 828 150
141 828 116
141 829 117
141 828 117
139 829 120
139 830 120
139 830 121
139 829 147
140 830 149
139 830 122
139 831 123
140 830 148
141 830 148
141 831 147
139 832 124
139 832 125
141 832 145
141 832 146
141 832 147
139 832 126
139 833 127
140 833 128
140 833 129
140 834 130
141 834 143
142 833 145
142 833 146
141 831 148
141 834 131
141 835 132
141 835 133
141 835 134
141 835 135
141 835 136
141 834 137
141 835 139
141 835 140
141 834 141
141 834 142
141 835 141
142 834 143
142 834 144
142 835 143
141 472 106
141 471 107
141 471 108
141 471 109
140 471 111
140 471 112
141 472 105
141 472 107
139 471 112
139 471 113
140 471 114
140 473 104
141 473 105
139 472 116
140 472 117
140 474 103
140 474 104
140 473 119
139 473 119
140 473 120
140 474 123
141 474 124
140 475 102
140 474 121
140 475 123
140 474 122
141 475 125
139 475 102
139 477 100
140 475 101
140 477 125
140 477 126
140 477 127
140 478 99
140 478 127
140 478 128
140 479 128
139 479 100
140 479 129
141 479 130
140 481 101
140 481 130
140 480 131
140 481 102
141 481 131
141 481 132
141 481 102
140 483 132
140 483 133
140 482 104
140 484 132
140 484 133
139 482 104
141 484 133
139 484 107
140 485 110
140 486 133
138 484 107
141 486 110
140 486 111
141 488 112
140 487 133
142 487 111
140 487 112
140 489 113
141 491 113
141 490 113
140 491 132
142 493 112
142 494 112
141 493 113
142 495 112
142 493 113
143 496 111
141 495 113
143 497 110
141 496 113
140 495 132
143 497 111
144 497 109
144 498 109
144 499 109
144 499 108
144 500 108
144 500 107
144 501 107
144 502 107
144 502 106
144 503 106
144 504 106
140 502 131
144 505 106
140 503 131
144 505 105
140 504 131
144 506 106
141 505 131
144 508 104
140 506 131
145 507 105
140 507 131
145 508 105
140 508 130
145 509 104
140 509 130
141 509 130
145 510 104
141 510 130
145 511 104
140 511 130
145 512 104
140 512 130
145 513 104
140 513 130
145 514 104
140 514 130
145 516 105
140 515 129
145 516 104
140 516 129
145 517 105
140 517 129
145 518 105
140 518 129
145 519 105
141 520 128
145 520 105
141 521 128
145 521 105
141 522 128
145 522 105
141 523 128
145 523 105
140 524 128
145 524 105
141 524 128
144 527 105
140 526 128
144 527 104
141 526 128
143 529 104
140 527 128
143 530 104
140 528 128
141 532 104
140 529 128
140 533 105
140 530 128
141 533 104
140 531 128
140 532 128
140 534 128
141 534 128
140 535 128
140 536 104
141 536 127
140 537 104
140 538 127
141 538 127
140 539 127
140 540 127
141 541 127
140 542 103
141 542 127
140 543 103
140 543 127
140 544 127
140 545 127
140 546 102
141 546 127
140 547 101
140 547 127
140 548 127
140 549 101
140 549 127
140 550 100
140 551 100
141 550 127
140 551 127
141 552 126
140 553 100
140 554 126
140 554 99
140 554 127
140 555 99
140 555 126
140 556 99
140 556 126
140 557 126
140 559 97
140 558 98
141 558 126
141 559 97
140 559 126
140 560 97
140 560 126
140 561 97
140 561 126
140 562 97
140 562 126
140 563 96
140 562 96
140 563 127
140 564 96
140 565 97
141 564 126
140 565 96
141 565 127
140 566 96
141 566 127
140 567 96
141 567 127
140 568 96
141 568 127
140 569 96
141 569 127
140 570 95
141 570 128
140 571 95
142 571 127
140 572 95
142 572 127
141 573 94
141 573 95
141 573 128
141 574 94
141 574 128
141 575 94
140 576 128
141 577 93
141 576 94
140 577 128
141 577 94
140 578 127
141 578 93
140 579 127
140 579 93
141 579 127
140 580 93
140 581 127
140 581 93
141 581 126
140 582 93
140 582 126
140 583 93
140 583 126
140 584 93
140 584 126
140 585 93
140 585 126
140 586 126
140 587 92
140 587 125
140 588 92
140 588 125
140 589 92
140 589 125
140 590 91
140 590 125
140 591 91
141 591 91
140 591 125
141 592 90
141 593 90
140 592 126
141 594 90
141 593 91
140 593 126
141 595 90
141 594 91
140 594 126
141 596 90
140 597 91
140 595 126
141 597 90
141 598 90
141 596 126
142 597 89
140 598 91
140 597 126
141 599 90
140 599 91
140 598 126
141 600 90
140 599 126
141 601 89
141 601 125
141 601 90
141 602 125
141 602 89
141 603 125
141 603 89
141 604 124
140 604 90
141 604 125
140 605 90
141 605 125
140 606 90
140 607 125
140 607 90
140 608 125
140 608 90
140 608 124
140 609 90
140 609 125
141 610 90
140 610 125
141 611 90
140 611 125
141 612 90
140 612 125
141 613 90
140 614 126
140 614 91
141 614 126
140 615 91
140 615 126
139 617 90
140 616 126
140 618 90
140 617 127
141 618 90
140 618 127
140 619 90
141 619 128
141 621 89
140 620 90
140 620 128
140 621 128
140 622 128
141 624 88
141 623 89
140 623 128
141 625 88
140 624 127
141 626 87
140 625 127
141 627 87
140 626 127
141 628 87
140 627 127
141 628 86
140 628 126
140 630 87
140 629 126
140 631 125
140 631 86
141 631 125
140 632 86
140 632 125
140 633 86
140 633 125
140 634 84
140 634 125
139 635 84
139 634 85
140 635 125
140 636 81
140 635 83
139 635 83
138 635 85
140 636 125
141 636 81
140 635 82
141 635 82
139 634 84
140 637 124
141 637 80
142 637 81
142 636 81
140 634 83
140 638 124
142 638 80
143 639 79
142 637 80
143 638 80
142 636 80
141 635 81
140 639 123
143 640 79
140 640 123
143 641 78
143 641 79
140 641 123
143 642 78
142 644 79
140 642 123
140 644 124
142 646 77
142 646 78
140 645 124
142 647 77
143 645 77
140 646 124
142 648 77
143 646 77
140 647 125
142 649 76
140 647 124
140 648 125
141 648 124
141 650 125
141 651 76
141 651 125
141 653 75
142 652 75
141 652 76
141 652 125
141 654 75
141 653 125
141 655 75
142 654 124
140 656 75
142 656 124
141 656 75
142 656 125
141 657 75
142 657 124
141 658 75
141 659 125
141 659 75
141 660 124
141 660 75
141 661 124
141 661 75
141 662 75
140 662 124
141 662 74
141 663 74
141 662 124
141 664 74
140 663 125
141 665 74
140 664 125
141 666 74
140 665 125
141 667 73
141 667 74
140 666 125
141 668 74
142 667 74
140 667 125
141 670 73
142 668 74
140 668 126
142 669 73
140 669 126
141 671 73
140 670 126
142 671 73
140 671 126
142 672 73
142 673 73
140 672 126
142 674 73
142 675 73
140 674 127
142 676 73
143 674 73
140 675 127
142 677 73
141 675 127
142 678 73
140 677 128
142 677 74
140 678 128
141 679 74
140 679 129
141 680 74
142 679 74
140 680 129
142 680 74
142 681 74
140 681 129
142 682 74
141 681 129
142 682 75
140 682 130
142 683 75
142 684 75
140 683 130
142 685 75
140 684 130
142 685 76
140 685 131
142 686 76
140 686 131
141 688 76
142 687 76
140 687 132
141 689 76
140 688 132
141 690 76
140 689 133
141 690 77
140 690 133
141 691 77
141 691 133
141 692 77
140 692 134
141 693 77
141 693 134
141 694 77
141 694 134
141 695 77
140 695 135
141 696 77
140 696 135
141 697 77
140 697 135
141 699 77
140 698 136
141 700 77
140 699 136
141 700 78
141 699 78
140 700 136
141 701 78
140 701 137
141 702 78
140 702 137
141 703 78
140 703 137
141 704 78
140 704 137
141 706 78
141 706 79
140 705 137
141 707 78
140 706 138
141 707 79
140 707 138
141 708 79
140 708 138
141 709 79
140 709 138
142 709 79
140 710 139
142 711 80
140 711 139
142 712 80
142 713 80
140 712 139
142 713 81
142 712 81
140 713 139
142 714 81
140 714 140
142 715 82
140 715 140
142 716 82
142 714 82
140 716 140
142 717 83
140 717 141
142 718 83
140 718 141
142 719 84
142 718 84
142 720 85
142 721 85
142 719 85
143 720 85
142 722 86
140 722 142
142 723 86
139 722 142
142 724 87
142 723 87
140 724 143
143 722 86
142 725 88
140 725 143
142 726 88
143 726 88
143 727 88
143 725 88
140 727 144
143 728 89
143 729 89
140 728 144
143 730 89
140 729 144
144 730 89
144 731 89
140 730 145
144 732 89
144 729 89
140 731 145
144 732 90
144 733 90
140 732 146
140 731 146
144 734 90
140 733 146
144 735 90
140 734 147
140 733 147
145 735 90
145 734 90
140 735 148
140 736 148
145 736 90
140 736 149
140 737 149
145 737 90
141 737 149
140 737 150
145 738 90
144 740 91
141 738 150
141 738 151
141 738 152
144 741 91
145 739 91
141 739 152
140 739 153
144 742 91
140 740 153
141 740 153
144 743 91
141 741 153
140 741 154
144 744 91
141 742 152
140 742 154
140 743 154
144 745 91
140 743 153
139 743 155
140 742 155
145 744 91
145 743 91
139 744 156
139 743 156
145 745 91
145 746 91
139 745 157
139 744 157
139 745 158
145 747 91
145 748 91
139 746 158
138 746 158
139 746 159
145 749 91
145 750 91
140 746 160
139 747 160
145 751 91
139 748 160
140 748 161
145 752 91
140 749 161
146 750 92
146 749 92
139 750 160
139 750 161
146 751 92
146 752 92
140 751 162
146 753 92
140 752 162
146 754 92
140 753 162
146 755 92
140 754 162
141 754 162
145 758 92
140 755 162
145 759 92
140 756 162
146 757 92
140 757 162
146 758 92
140 758 162
146 759 92
140 759 162
140 759 163
146 760 92
146 761 92
140 760 163
146 762 92
140 761 163
146 763 92
140 762 163
146 764 92
140 763 163
146 764 93
140 764 163
145 768 93
146 765 93
145 769 93
146 766 93
141 766 164
146 767 93
140 767 163
146 768 93
141 768 164
146 769 93
141 769 164
146 770 93
140 770 163
146 771 93
146 772 93
140 771 163
141 771 164
146 773 93
146 774 93
141 772 164
146 775 93
141 774 165
146 776 93
141 775 165
146 777 93
141 776 165
145 779 93
146 778 93
141 776 166
145 780 93
146 779 93
141 777 165
141 777 166
145 781 93
141 778 166
146 779 92
141 779 166
145 783 93
141 780 166
145 784 93
141 781 166
145 785 93
141 782 166
145 786 93
140 783 166
144 788 93
145 787 93
140 784 166
145 788 94
140 785 166
145 788 93
140 786 166
144 790 94
140 787 166
144 791 94
140 788 165
140 788 166
144 792 95
145 789 94
140 789 165
140 789 166
144 793 95
140 790 165
140 790 166
144 792 94
140 791 165
140 791 166
144 794 95
145 792 95
140 792 165
141 792 166
141 792 167
143 796 95
140 793 165
141 793 166
141 793 167
144 795 95
140 794 164
141 794 166
141 794 167
144 796 95
144 798 96
141 795 166
141 795 167
143 799 96
141 796 165
142 796 167
143 801 98
142 797 166
143 800 96
141 799 165
143 801 97
141 799 164
143 802 98
141 800 164
143 803 98
141 801 164
143 804 99
141 802 163
143 804 98
141 803 163
143 805 99
140 803 162
143 806 99
141 805 162
143 808 100
140 807 162
143 807 99
140 808 161
142 810 101
140 809 161
142 811 102
140 810 160
142 812 103
140 811 160
142 812 102
139 811 160
142 813 103
142 814 104
140 812 160
141 815 104
140 814 159
142 815 104
141 816 105
141 815 158
142 816 105
142 817 106
140 816 158
142 817 105
142 818 107
141 816 158
142 818 106
142 819 108
140 818 157
142 819 107
141 819 156
141 820 110
140 820 156
141 821 110
141 821 111
141 821 155
141 820 156
141 822 111
141 822 112
141 821 156
141 823 112
142 822 111
141 823 154
141 822 155
141 824 112
141 824 113
141 824 154
141 823 155
141 825 114
141 825 153
140 825 115
141 826 152
141 826 153
141 826 114
141 827 151
141 827 152
141 826 115
140 826 116
141 828 151
142 827 152
142 827 115
141 827 116
142 828 116
141 829 118
141 829 149
141 829 150
142 829 117
142 828 117
140 829 119
141 829 119
140 829 120
141 830 149
142 829 149
142 830 118
140 830 120
140 830 121
142 830 148
142 831 148
141 830 119
140 831 122
140 831 123
142 831 147
140 832 124
140 832 125
142 832 146
142 832 147
140 833 126
140 833 127
140 834 128
140 834 129
143 833 145
143 833 146
143 833 147
141 834 130
141 835 131
142 835 132
142 835 133
142 835 134
142 835 135
141 835 137
142 835 137
142 835 138
142 835 139
142 835 140
142 835 141
142 834 142
142 835 142
143 834 144
143 834 145
143 832 147
143 835 144
144 834 146
141 470 109
142 470 109
141 470 110
141 470 111
142 471 105
142 471 106
142 471 107
141 471 110
141 470 112
141 470 113
141 470 114
141 473 104
140 471 115
141 471 116
141 471 117
141 473 103
141 474 103
141 472 118
140 472 118
141 472 119
141 473 122
141 474 123
141 474 102
140 474 102
141 473 120
141 473 121
141 474 122
142 473 122
142 474 123
142 474 125
141 475 101
141 475 124
141 474 101
141 476 125
141 476 126
140 477 99
140 476 100
141 475 100
141 477 128
141 478 97
140 479 99
141 478 129
141 480 99
141 481 100
141 480 131
141 481 101
141 482 132
141 482 133
141 483 133
141 485 133
141 486 133
141 486 111
142 486 133
140 484 108
142 486 111
141 487 112
141 487 133
142 488 112
142 487 112
141 489 113
141 489 133
142 490 113
142 489 113
141 490 133
142 491 113
143 493 112
142 492 113
141 492 133
143 494 112
144 494 111
141 493 133
143 495 112
144 495 111
144 496 110
144 497 110
144 496 111
141 496 132
145 497 109
145 496 109
141 497 132
145 498 108
145 498 109
145 499 107
145 499 108
145 500 107
145 501 107
145 501 106
145 502 106
145 503 106
145 503 105
141 502 131
145 504 105
141 503 131
145 505 105
141 504 131
145 506 105
142 505 131
145 507 104
141 506 131
145 508 104
141 507 131
146 508 104
141 508 131
146 509 104
141 508 130
146 510 104
142 510 130
146 511 104
141 511 130
146 512 104
141 512 130
146 513 104
141 513 130
146 514 104
141 514 130
145 517 104
141 515 129
146 516 104
141 516 129
146 517 104
141 517 129
146 518 104
142 519 128
146 519 104
142 520 128
146 520 104
142 521 128
145 523 104
142 522 128
145 524 104
142 523 128
145 525 105
142 524 128
145 525 104
141 525 128
145 526 104
142 525 128
144 528 104
142 526 128
144 529 104
141 527 128
144 530 104
141 528 128
143 531 104
141 529 128
142 532 104
141 530 128
141 531 128
141 532 128
142 534 127
142 535 127
141 535 104
142 536 127
141 536 103
141 537 127
142 537 127
142 538 126
141 539 127
141 540 127
141 541 103
142 541 126
142 542 102
142 542 126
141 543 127
141 544 127
141 545 102
141 545 127
141 546 101
142 546 126
142 547 126
142 548 126
141 549 100
141 549 127
142 550 126
141 551 100
141 551 126
141 552 99
140 552 100
142 552 125
141 553 99
141 553 126
141 554 99
141 554 126
141 555 98
141 555 125
141 556 98
141 556 125
141 557 97
141 557 98
141 557 125
141 559 96
141 558 97
141 558 125
141 560 96
140 559 98
141 559 126
140 560 96
141 561 96
141 560 126
141 561 95
140 561 96
141 561 126
141 562 95
141 562 96
141 562 126
141 563 95
141 563 96
141 563 126
141 564 95
141 565 95
142 564 126
141 565 94
141 566 95
142 565 126
141 567 95
140 566 95
142 566 126
141 567 94
141 568 95
142 567 126
141 569 95
142 568 127
141 569 94
142 569 127
141 570 94
141 570 95
142 570 127
141 571 94
141 571 95
143 571 127
141 572 94
143 572 127
142 573 93
141 572 95
143 573 127
142 574 93
142 574 94
143 574 127
142 575 93
142 575 128
141 577 128
142 577 93
142 579 127
141 579 93
141 580 127
141 580 93
142 581 126
141 581 93
141 581 127
141 581 92
141 582 126
141 582 92
142 582 125
141 583 92
141 584 125
141 584 92
141 584 126
141 585 92
141 585 125
141 586 92
141 586 125
141 587 92
141 587 125
141 588 92
141 588 125
141 589 91
140 589 91
141 589 125
141 590 90
141 590 91
141 591 90
141 590 125
142 591 89
142 591 90
141 591 125
142 592 89
141 592 125
142 593 89
142 593 125
142 594 89
141 594 126
142 595 89
141 595 126
142 596 89
141 597 126
142 597 88
141 598 126
142 598 89
141 599 126
142 599 89
142 600 125
142 600 89
142 601 125
142 601 89
142 602 124
141 602 90
142 603 124
141 604 89
142 603 125
141 604 90
141 605 124
141 605 90
141 606 124
141 606 90
140 606 124
141 607 90
141 607 124
141 608 90
141 608 124
141 609 90
141 609 125
142 610 89
141 610 125
142 611 89
141 611 125
142 612 89
141 612 125
142 613 89
141 613 126
142 614 90
141 613 127
142 615 90
141 616 127
142 616 90
141 616 126
142 617 90
141 617 127
141 619 90
141 618 127
142 620 89
141 619 127
142 621 89
141 620 128
141 622 89
142 622 89
141 621 128
142 623 88
142 623 89
141 622 128
142 624 88
141 623 128
142 625 87
141 624 127
141 626 88
141 625 127
141 626 127
141 627 127
141 629 86
141 628 126
141 629 85
141 629 126
141 630 86
141 630 126
141 631 85
141 631 86
141 632 125
140 632 85
141 633 125
140 633 84
140 633 85
141 633 124
141 634 83
141 633 83
139 633 85
141 634 124
142 635 81
141 634 82
142 634 82
140 633 83
141 635 124
143 636 80
142 634 81
143 635 81
142 633 83
141 636 123
143 637 79
143 636 79
143 637 80
143 638 79
143 635 80
143 634 81
141 637 123
144 638 78
144 638 79
144 639 79
144 637 79
144 636 79
141 638 123
144 639 78
144 640 78
141 639 123
144 640 77
143 642 79
141 640 122
144 641 77
143 643 78
141 642 123
144 642 77
143 644 78
141 643 123
144 643 77
143 645 78
140 643 123
141 644 123
141 645 123
143 647 77
141 646 124
143 648 76
143 648 77
141 647 124
142 650 76
142 649 77
142 648 124
143 649 76
143 650 76
142 649 124
142 651 76
143 651 76
142 650 124
143 651 75
142 651 125
142 653 75
143 652 75
143 653 75
142 653 124
142 654 75
142 653 125
142 655 75
142 654 125
142 656 75
142 655 125
142 657 75
142 657 125
142 658 75
142 658 124
142 659 75
142 658 125
142 660 75
142 659 124
142 661 75
142 660 124
142 662 75
141 661 125
142 663 75
141 663 124
142 663 74
142 664 74
140 663 124
142 665 74
143 664 74
141 664 124
142 666 74
141 665 125
143 666 74
141 666 125
143 667 74
141 667 125
142 669 74
141 668 125
142 670 73
141 669 125
143 670 74
