ply
format ascii 1.0
comment Created by Open3D
element vertex 4155
property double x
property double y
property double z
end_header
147 566 150
147 565 151
148 567 171
150 569 57
149 571 58
150 570 57
149 572 58
150 567 56
150 567 119
150 568 121
148 568 146
148 568 147
148 567 148
148 567 149
146 568 150
146 567 151
146 566 152
148 567 170
150 568 56
150 571 57
150 569 56
150 572 57
150 566 56
150 568 120
150 569 121
148 568 145
148 569 146
148 569 147
148 568 148
146 569 149
149 566 148
146 570 149
148 568 169
150 570 56
150 571 56
150 573 57
150 574 58
150 575 58
150 569 120
149 570 123
148 569 144
148 569 145
148 570 146
147 570 146
149 568 146
146 571 148
145 570 151
148 569 167
148 569 168
150 572 56
150 574 57
150 573 56
150 575 57
151 573 56
150 570 122
149 571 124
148 570 144
148 570 145
148 571 145
147 571 146
147 572 148
146 572 149
147 573 150
148 570 166
150 574 56
151 574 56
150 576 57
150 575 56
151 575 56
150 571 122
149 572 124
148 571 143
148 571 144
147 571 145
147 572 146
147 572 147
146 572 148
147 573 149
148 574 150
145 571 151
148 571 164
148 571 165
151 572 55
150 576 56
150 577 57
151 571 55
151 576 56
149 573 124
148 571 125
148 572 144
148 572 145
148 573 146
147 573 147
147 573 148
148 574 149
148 574 151
148 574 152
148 574 153
148 572 162
148 572 163
151 573 55
150 577 56
150 578 57
151 574 55
151 577 56
149 573 125
148 573 144
148 573 145
148 574 146
148 574 147
148 574 148
147 574 149
147 574 150
148 575 151
148 575 152
148 574 154
148 573 160
149 573 161
149 573 162
151 575 55
150 579 57
151 578 56
150 580 57
151 576 55
150 574 125
148 575 147
147 574 148
148 575 149
148 575 150
149 575 151
149 575 152
148 575 153
148 574 155
149 574 155
149 574 156
149 574 158
149 574 159
149 573 160
151 577 55
151 579 56
150 581 57
151 581 57
151 580 56
149 577 124
150 575 125
149 575 153
149 575 154
149 575 155
149 575 156
149 574 157
150 575 158
151 578 55
151 579 55
150 582 57
151 582 57
151 581 56
150 576 125
150 577 125
151 580 55
150 583 57
151 582 56
151 583 57
151 581 55
150 577 124
152 580 55
151 583 56
151 584 57
151 582 55
152 581 55
149 579 123
150 578 124
150 579 124
151 583 55
151 584 56
151 585 57
151 586 58
152 582 55
148 580 123
152 578 127
151 585 56
151 586 57
151 587 58
152 583 55
150 588 58
149 580 123
149 581 123
151 586 56
151 587 57
151 588 58
152 584 55
150 589 58
148 581 122
150 580 123
152 586 56
151 587 56
151 588 57
151 589 58
150 590 58
148 583 122
149 582 122
152 585 55
152 587 56
151 588 56
151 589 57
151 590 58
148 583 121
147 583 121
152 586 55
152 588 56
150 591 58
151 590 57
151 591 58
148 584 120
147 584 120
151 589 56
152 587 55
152 589 56
150 592 58
151 591 57
148 585 119
148 585 120
151 590 56
151 592 58
152 590 56
150 593 58
150 594 59
151 593 58
149 586 118
148 586 119
151 591 56
151 592 57
150 594 58
150 595 59
151 594 58
151 593 57
148 587 118
149 587 118
152 591 56
151 592 56
150 595 58
150 596 59
151 595 58
149 588 117
148 588 118
151 594 57
151 593 56
150 596 58
150 597 59
151 596 58
148 589 118
149 589 118
151 595 57
151 594 56
150 597 58
150 598 59
151 597 58
148 590 118
148 591 119
152 593 56
151 596 57
150 598 58
150 599 59
151 598 58
151 597 57
150 600 59
150 599 58
148 592 119
147 592 119
151 595 56
152 594 56
151 599 58
151 598 57
150 601 59
150 600 58
151 600 58
150 602 59
148 593 119
147 593 119
151 596 56
152 595 56
151 597 56
151 599 57
152 596 56
151 601 58
150 603 59
151 600 57
148 594 120
151 598 56
152 597 56
152 598 56
151 602 58
151 599 56
151 601 57
150 604 59
151 603 58
148 594 119
147 594 120
152 599 56
151 600 56
152 595 55
151 602 57
150 605 59
150 606 60
151 604 58
152 600 56
147 595 120
152 596 55
152 597 55
151 603 57
152 601 56
150 606 59
150 607 60
151 605 58
151 604 57
147 597 121
146 596 121
152 598 55
152 599 55
152 602 56
150 607 59
150 608 60
151 606 58
151 605 57
150 608 59
147 598 121
152 600 55
152 603 56
153 598 55
152 601 55
150 609 60
151 607 58
151 606 57
150 609 59
147 599 121
146 598 122
152 604 56
152 602 55
150 608 58
151 608 58
150 610 60
150 611 61
151 607 57
150 610 59
148 600 121
152 605 56
152 603 55
150 609 58
151 609 58
150 611 60
151 610 59
150 612 61
151 608 57
147 600 121
148 601 121
152 606 56
152 604 55
152 607 56
150 611 59
150 612 60
151 611 59
149 613 61
150 613 61
148 602 121
147 601 121
152 605 55
151 609 57
151 610 58
150 612 59
150 613 60
151 612 59
150 614 61
150 615 62
148 603 121
152 608 56
151 610 57
151 611 58
152 610 57
150 613 59
150 614 60
150 615 61
151 613 59
147 602 121
152 606 55
151 611 57
151 612 58
152 609 56
150 616 62
150 615 60
150 616 61
151 614 59
148 605 121
152 607 55
152 611 57
151 613 58
151 612 57
150 617 62
150 616 60
150 617 61
149 618 62
148 606 121
152 610 56
152 612 57
151 614 58
151 615 59
151 616 60
150 618 62
150 617 60
150 618 61
148 606 120
151 613 57
152 611 56
152 613 57
151 615 58
151 616 59
151 617 60
150 619 62
150 618 60
148 607 121
151 614 57
152 612 56
152 614 57
151 616 58
151 617 59
150 619 61
151 618 60
150 620 62
148 609 122
149 609 122
151 615 57
152 613 56
152 615 57
150 619 60
149 621 63
150 620 61
149 622 64
150 621 62
148 610 122
151 616 57
151 617 58
151 618 59
151 619 60
150 620 60
149 622 63
150 621 61
149 623 64
148 611 123
152 614 56
152 616 57
151 618 58
151 619 59
151 620 60
150 622 62
149 623 63
149 624 65
149 612 124
148 612 123
151 617 57
152 617 57
150 621 60
151 620 59
150 623 63
150 622 61
149 625 67
149 624 64
148 613 124
151 619 58
151 618 57
151 621 60
150 623 62
149 624 63
149 625 66
149 625 65
149 626 67
148 614 124
151 620 58
150 622 60
151 621 59
150 624 63
150 623 61
149 625 64
149 626 66
149 626 65
147 614 124
151 619 57
151 622 60
150 624 62
149 625 63
150 625 63
149 626 64
149 627 67
149 627 66
148 615 124
152 618 57
151 622 59
150 624 61
151 623 60
150 625 62
149 626 63
149 627 65
149 628 67
148 616 124
151 621 58
151 624 61
150 625 61
150 626 63
149 627 64
149 628 66
149 628 65
149 629 67
148 617 124
151 623 59
151 624 60
151 625 61
150 626 62
149 627 63
150 627 63
149 628 64
149 629 66
149 629 65
148 618 124
151 622 58
150 626 61
151 625 60
150 627 62
151 626 61
150 628 63
149 629 64
149 630 66
150 629 64
149 631 67
148 620 125
151 624 59
151 623 58
150 627 61
150 628 62
151 627 61
149 630 65
150 629 63
149 631 66
149 632 67
149 630 64
148 620 127
151 625 59
151 626 60
150 628 61
150 629 62
150 630 64
149 631 65
150 630 63
149 632 66
149 633 67
149 632 65
148 621 125
151 627 60
151 628 61
151 626 59
150 631 64
150 629 61
150 632 65
149 633 66
150 631 63
149 634 67
149 635 68
149 633 65
148 622 125
151 624 58
150 630 62
151 629 61
151 628 60
150 632 64
150 633 65
149 634 66
150 632 63
149 635 67
149 634 65
149 636 68
149 623 125
151 627 59
150 631 62
151 630 61
151 629 60
150 633 64
150 634 65
149 635 66
150 635 66
149 636 67
149 637 69
149 637 68
138 621 90
149 624 125
151 628 59
150 632 62
151 631 61
150 633 63
151 632 62
150 634 64
149 635 65
150 635 65
149 636 66
149 637 67
149 638 69
149 625 125
151 630 60
151 629 59
150 633 62
150 634 63
151 633 62
150 635 64
149 636 65
150 636 65
149 638 68
149 637 66
149 639 69
149 626 124
151 631 60
151 632 61
150 634 62
150 635 63
151 634 62
150 636 64
149 638 67
150 637 65
149 639 68
148 640 70
149 627 124
151 630 59
151 633 61
151 632 60
150 635 62
150 636 63
149 638 66
150 637 64
149 639 67
148 640 69
149 640 69
148 629 123
151 631 59
151 634 61
151 635 62
151 633 60
150 638 65
150 636 62
149 639 66
149 640 68
148 641 70
148 641 69
149 641 69
148 630 123
151 635 61
150 637 63
151 636 62
150 638 64
150 639 65
149 640 67
149 640 66
148 642 70
148 631 123
151 634 60
150 637 62
150 638 63
150 639 64
150 640 66
149 641 68
149 641 67
148 642 69
148 631 122
151 637 62
151 636 61
150 640 65
149 641 66
150 641 66
149 642 68
148 643 70
148 632 122
150 638 62
150 639 63
150 640 64
149 642 67
150 641 65
148 643 69
147 644 74
148 633 122
151 638 62
150 640 63
149 642 66
150 642 66
148 643 68
148 644 71
148 634 122
150 641 64
149 643 68
149 643 67
144 643 78
148 635 122
148 644 70
148 644 69
146 645 75
148 636 121
149 643 66
148 644 68
148 637 120
149 644 68
148 645 71
148 645 70
148 638 120
149 644 67
148 645 69
147 646 74
147 638 120
148 645 68
149 645 68
148 646 71
148 640 119
150 643 66
148 646 70
148 647 71
148 641 118
148 646 69
148 647 70
148 648 71
148 642 118
149 645 67
149 646 68
148 647 69
148 644 119
149 647 69
148 648 70
147 644 119
148 648 69
148 649 71
148 645 119
149 648 69
147 649 71
148 646 119
148 649 70
148 650 71
148 647 119
148 649 69
146 649 74
148 648 119
148 651 71
149 649 69
148 648 118
149 650 69
147 652 73
149 650 118
150 651 65
149 650 67
149 651 68
149 650 68
149 651 69
148 651 118
150 652 65
150 652 66
150 652 67
148 652 118
149 654 67
149 654 68
148 653 118
149 654 69
148 654 118
149 655 69
148 655 118
149 656 69
149 656 70
148 656 118
149 657 69
149 657 70
148 657 118
149 658 70
148 658 118
149 659 70
149 659 71
148 659 118
149 660 70
149 660 71
148 660 119
149 661 71
149 661 72
148 661 119
149 662 71
148 662 119
149 663 71
150 663 71
148 663 119
149 665 72
149 665 73
148 664 119
149 666 72
147 666 120
149 667 72
150 666 72
148 667 120
150 667 72
149 669 73
148 669 121
150 668 72
148 668 120
150 669 73
150 670 73
148 670 121
150 670 72
150 671 73
149 670 121
150 672 74
148 672 122
150 672 73
148 673 122
150 673 74
150 674 74
148 674 123
150 675 74
149 676 74
148 675 123
150 676 74
148 676 124
150 677 75
150 677 74
148 677 124
150 678 75
149 679 77
148 678 125
150 679 76
148 678 124
149 680 77
148 679 125
149 681 77
149 681 78
148 680 126
150 681 76
149 682 78
148 681 126
149 683 78
148 682 126
149 684 78
149 684 79
148 683 126
150 684 77
149 685 79
148 684 128
149 686 79
149 685 127
148 685 80
149 686 80
149 686 128
148 688 80
149 687 80
148 686 129
149 688 80
149 688 129
148 689 81
147 689 81
148 688 130
148 690 81
149 690 81
149 690 130
148 691 82
149 691 131
148 692 82
148 693 82
148 692 132
149 692 82
148 693 83
149 693 132
148 694 83
148 694 133
149 695 83
149 694 83
150 695 132
148 696 84
149 696 84
149 695 133
149 697 84
149 698 84
150 697 133
148 699 84
150 698 133
149 699 84
148 699 85
149 699 134
148 700 85
149 700 134
148 701 85
149 701 85
149 701 134
148 703 85
149 702 86
149 702 134
149 703 86
148 704 86
149 703 134
149 704 86
148 704 136
149 705 86
149 705 87
148 705 136
149 706 87
149 706 135
148 707 87
149 708 88
148 707 136
149 708 87
149 709 88
148 708 136
148 710 88
148 709 136
148 711 88
148 711 137
149 711 88
149 711 89
148 712 137
148 713 89
148 712 136
149 713 89
148 713 137
148 714 89
148 714 138
147 714 154
147 713 155
147 714 157
147 714 158
147 715 158
148 715 89
148 716 90
148 715 138
148 716 139
148 715 152
147 715 154
146 715 155
147 715 157
146 715 157
147 715 159
148 715 160
147 715 160
149 716 90
148 716 138
148 716 152
147 716 153
146 716 155
147 716 159
147 716 160
148 716 161
148 717 161
148 716 162
148 717 90
148 717 138
148 719 139
148 717 152
147 717 152
147 717 161
148 717 162
148 717 163
148 718 90
148 718 138
152 718 143
148 718 152
148 718 162
148 718 163
148 718 164
148 719 90
148 719 91
149 719 138
148 719 151
148 718 151
148 719 163
148 719 164
149 720 91
149 720 138
150 722 144
148 720 151
149 720 151
148 720 164
149 720 165
149 721 91
148 721 139
150 721 146
149 721 150
149 720 150
148 721 164
148 721 165
149 721 166
149 722 92
148 722 140
149 723 141
150 722 143
150 722 145
150 722 146
149 721 149
150 721 149
148 722 165
149 722 166
149 723 92
149 723 140
149 724 141
150 723 144
150 722 147
150 721 147
150 721 148
149 720 149
150 720 149
148 723 165
149 723 166
149 723 167
149 724 92
149 722 140
150 723 143
151 721 147
151 721 148
151 720 148
148 725 166
149 724 167
149 725 93
149 724 142
151 721 146
149 719 150
149 725 166
149 725 167
149 726 93
149 726 167
149 726 168
150 727 93
149 727 167
149 727 168
150 728 93
149 728 167
149 728 168
150 729 93
149 729 167
149 730 168
150 730 94
149 730 167
149 731 168
150 731 94
149 731 167
149 732 168
150 732 95
149 732 167
149 733 169
150 733 95
149 733 168
149 734 169
150 734 95
149 735 169
149 734 170
150 735 95
148 736 169
149 735 170
150 736 95
149 736 169
149 736 170
149 736 171
151 737 95
148 737 170
148 737 171
151 738 96
148 738 170
148 738 171
151 740 95
148 739 170
148 739 171
148 739 172
151 740 96
148 740 171
148 740 172
151 741 96
151 742 96
148 741 171
148 741 172
148 741 173
151 743 96
151 742 97
148 742 171
148 742 172
148 742 173
151 743 97
151 744 97
148 743 173
147 743 173
148 743 174
151 746 96
147 744 172
148 744 174
147 744 174
151 747 96
147 745 173
147 745 174
148 745 175
151 748 96
147 746 174
147 746 175
148 746 176
148 746 177
148 746 178
151 747 97
147 747 174
147 747 175
148 747 176
148 747 177
148 747 178
151 750 96
147 748 175
147 748 176
148 748 177
148 748 178
148 748 179
151 749 97
148 749 177
148 749 178
148 749 179
148 749 180
151 750 97
148 750 178
148 750 179
148 750 180
151 751 97
148 751 179
148 751 180
151 752 97
148 752 180
148 752 181
151 755 96
148 753 180
148 753 181
151 756 96
148 754 180
148 754 181
151 757 96
148 755 180
148 755 181
152 758 94
152 757 95
148 756 180
148 756 181
152 759 94
152 758 95
148 757 181
148 757 182
152 760 94
148 758 181
148 758 182
152 761 93
148 759 181
148 759 182
152 761 94
148 760 181
148 760 182
152 762 94
148 761 181
148 761 182
152 764 93
148 762 181
148 762 182
152 766 93
148 763 181
148 763 182
153 764 92
148 764 181
148 764 182
153 765 92
148 765 181
148 765 182
152 768 91
148 766 181
148 766 182
152 769 91
148 767 181
149 767 182
152 770 91
148 768 181
149 768 182
153 769 91
149 769 181
149 770 181
153 770 91
149 771 181
150 770 182
152 773 90
149 771 180
150 771 182
153 772 91
153 771 91
149 772 180
149 773 180
150 772 181
153 773 90
153 772 90
149 774 179
150 773 181
153 774 90
148 774 178
150 774 180
150 774 181
153 775 90
153 776 90
150 776 179
150 775 180
153 777 90
153 778 90
149 777 178
153 779 90
149 777 179
153 780 90
149 778 177
152 782 91
149 779 178
152 782 90
149 781 176
152 783 91
149 782 176
152 784 91
149 783 176
151 786 91
149 784 175
152 785 91
149 785 175
151 787 91
148 786 175
151 789 92
148 787 174
151 790 92
148 788 174
152 789 92
149 788 173
151 791 92
148 790 172
151 792 92
148 791 172
151 793 93
147 791 172
150 795 93
149 792 171
151 794 93
148 793 171
150 796 93
148 794 170
149 797 93
148 795 170
150 798 94
148 796 169
150 799 94
148 798 169
149 800 94
148 798 168
149 801 94
148 799 168
150 801 95
148 800 167
150 802 95
148 801 167
149 803 95
148 802 166
148 804 95
148 803 166
149 805 96
148 804 165
149 806 96
148 805 165
148 807 96
148 807 164
149 808 97
148 808 163
148 809 98
148 809 162
148 809 97
148 810 162
148 810 98
148 811 162
148 811 98
148 812 99
148 812 161
149 813 100
148 813 160
148 814 100
149 814 101
149 813 160
149 815 101
148 815 159
149 816 101
150 816 102
148 815 160
150 817 102
150 818 103
148 816 159
149 819 104
148 817 158
150 819 103
149 820 104
149 818 158
149 820 105
150 820 105
149 819 157
149 818 157
149 821 105
149 821 106
149 820 157
149 822 106
149 823 107
149 821 156
150 822 106
149 824 108
149 822 155
150 821 156
150 823 107
149 825 109
149 823 154
150 823 155
150 824 108
149 825 153
149 826 109
150 825 153
150 824 154
150 826 110
150 827 111
150 826 152
150 828 111
150 828 112
150 827 151
150 827 152
150 827 110
150 830 113
151 828 150
151 828 151
151 829 112
150 830 115
151 829 150
151 827 151
151 830 113
151 830 114
150 831 116
149 832 117
152 830 149
152 831 149
151 831 114
149 832 118
149 832 119
153 831 148
152 829 150
149 833 119
148 833 120
153 833 147
153 832 148
148 833 121
152 835 145
153 834 146
148 834 122
148 834 123
152 836 144
148 835 124
148 835 125
151 837 143
148 835 126
148 836 127
149 838 141
151 837 142
152 836 143
152 837 143
148 836 128
148 837 129
148 837 130
148 837 131
148 837 132
148 838 133
148 838 134
148 838 135
148 838 136
148 838 137
148 838 138
149 838 139
149 838 140
150 838 141
150 465 107
151 464 108
150 464 110
150 465 106
151 464 107
150 464 111
149 464 113
150 465 104
150 465 105
150 466 105
149 465 113
149 465 115
150 467 101
150 466 102
150 466 103
149 465 116
149 466 118
150 467 99
150 467 100
149 467 119
148 467 119
149 469 98
150 468 99
149 468 121
149 468 122
149 469 123
149 470 97
150 469 98
149 469 99
149 470 98
149 471 97
150 471 96
150 471 97
149 472 98
150 471 125
150 472 97
149 472 99
149 473 127
150 473 97
149 474 127
149 474 128
149 475 97
149 475 98
149 476 94
149 476 95
149 476 93
149 477 93
149 477 91
150 477 92
149 477 131
149 478 131
149 478 90
149 479 132
149 479 90
149 480 90
149 481 90
149 481 89
149 482 90
149 482 92
150 481 98
150 482 99
148 484 105
148 484 106
147 484 106
148 485 106
147 486 108
148 486 107
150 482 135
150 482 89
150 482 90
149 482 91
150 482 93
149 482 94
150 482 95
149 482 97
150 482 98
150 483 99
149 483 135
149 482 96
150 482 96
149 481 97
150 484 136
150 484 100
149 485 135
150 485 101
150 486 103
149 486 136
149 487 135
150 488 104
149 488 135
150 489 105
149 489 135
149 491 135
149 492 135
149 493 135
149 494 135
151 493 104
151 492 105
149 496 134
152 496 103
152 495 103
152 500 103
150 499 132
153 497 103
153 499 102
150 500 131
152 502 102
150 501 131
152 503 103
149 502 130
152 503 102
150 502 130
149 502 131
152 504 102
153 503 102
149 503 130
153 504 102
153 505 102
149 504 129
153 505 101
153 506 101
149 505 129
149 506 129
153 507 101
153 508 101
150 505 129
152 510 101
153 509 101
149 507 128
153 510 101
154 508 101
149 508 128
149 509 62
148 509 63
153 511 101
154 509 101
149 509 128
149 510 61
148 510 62
148 510 63
152 513 101
153 512 101
149 510 128
149 511 61
148 511 62
153 513 101
153 514 101
149 511 128
148 512 61
148 512 62
148 512 63
153 513 100
152 516 101
149 512 128
148 513 61
148 513 62
148 513 63
148 513 64
153 515 101
153 514 100
149 513 128
148 514 61
148 514 62
148 514 63
148 514 64
153 516 101
153 515 100
149 514 128
148 515 61
148 515 62
148 515 63
153 517 101
153 516 100
149 515 128
150 516 175
151 515 176
148 516 61
148 516 62
149 516 64
148 516 64
153 518 101
153 517 100
149 516 128
150 516 172
150 516 173
150 516 174
150 517 175
150 517 176
148 517 60
148 517 61
148 517 62
148 517 63
149 517 64
149 517 65
152 520 101
153 518 100
149 516 127
150 517 169
150 517 170
150 517 171
150 517 173
150 517 174
150 518 175
150 518 176
148 518 60
148 518 61
148 518 62
149 518 64
148 518 64
149 518 65
152 520 100
153 519 100
152 521 100
149 518 127
149 518 168
149 518 169
150 518 174
150 519 175
150 519 176
150 519 177
149 519 59
148 519 61
148 519 62
148 519 63
148 519 64
149 519 65
153 520 100
152 522 100
153 521 100
149 519 127
149 519 166
149 519 167
150 519 174
150 520 175
150 520 176
150 520 177
148 520 60
148 520 61
148 520 62
148 520 63
148 520 64
149 520 65
152 523 100
153 520 99
152 524 100
149 520 127
150 520 127
149 520 165
150 520 165
150 520 174
150 521 175
150 521 176
150 521 177
148 521 60
148 521 61
148 521 62
148 521 63
148 521 64
149 521 65
149 521 66
152 523 99
153 521 99
152 525 100
150 521 127
150 521 163
150 521 164
150 521 174
150 522 175
150 522 176
150 521 178
148 522 60
148 522 61
148 522 62
148 522 63
148 522 64
149 522 66
149 523 66
149 522 67
152 524 99
151 526 100
153 522 99
150 522 127
150 522 162
149 523 163
149 522 164
150 522 173
150 522 174
150 523 175
150 523 176
150 522 177
149 523 58
148 523 60
148 523 61
148 523 63
148 523 64
148 524 64
148 523 65
148 523 66
149 523 67
152 525 99
151 527 100
153 523 99
150 523 127
150 523 161
150 523 162
149 524 163
149 523 164
149 523 165
149 523 166
149 523 167
149 524 171
149 524 172
149 523 173
150 523 174
150 524 175
150 523 177
150 523 178
149 524 58
149 524 59
148 524 60
148 524 59
149 525 59
148 524 65
149 524 66
148 524 66
149 524 67
149 524 68
150 528 100
152 526 99
151 527 99
149 525 127
150 524 161
150 524 162
149 525 163
149 524 164
149 524 165
149 524 166
149 524 167
149 524 168
149 524 169
149 524 170
149 525 171
149 525 172
149 524 173
150 524 174
150 525 175
150 524 176
149 525 58
148 525 59
148 525 66
149 525 67
149 525 68
150 529 100
151 528 99
149 525 128
149 525 164
149 525 165
149 525 166
149 525 167
149 525 168
149 525 169
149 525 170
149 526 170
149 526 171
149 525 173
149 526 173
150 525 174
149 526 57
149 526 58
148 526 59
148 526 66
149 526 67
149 526 68
152 527 99
150 530 100
150 525 127
149 527 56
149 527 57
149 527 58
148 527 59
148 527 66
148 527 67
149 527 68
149 527 69
150 529 99
149 527 128
149 528 56
149 528 57
149 528 58
148 528 67
149 528 68
149 528 69
149 531 100
149 528 128
149 529 56
149 529 57
149 529 58
148 529 67
149 529 68
149 529 69
150 530 99
151 529 99
149 529 128
150 530 56
149 530 57
149 530 58
148 530 67
149 530 69
149 531 69
149 530 70
149 532 100
148 532 100
149 530 128
149 531 56
149 531 57
149 531 58
148 531 67
148 531 68
149 532 69
149 531 70
150 531 99
149 533 100
149 531 128
149 532 56
149 532 57
149 532 58
148 532 67
148 532 68
149 533 69
149 532 70
149 532 99
147 533 100
149 532 127
149 533 56
149 533 57
149 533 58
148 533 68
148 533 69
149 533 70
149 533 71
149 533 99
149 533 126
149 534 56
149 534 57
149 534 58
148 534 68
148 534 69
149 534 70
149 534 71
149 534 99
148 534 99
150 534 126
149 535 56
149 535 57
148 535 58
148 535 68
148 536 68
148 535 69
149 535 70
149 535 71
149 535 99
148 535 99
150 535 125
149 536 56
149 536 57
148 536 58
147 536 67
148 536 69
149 536 70
149 536 71
148 536 71
148 536 99
148 537 99
149 535 124
150 536 125
149 537 56
149 537 57
148 537 58
148 537 69
148 537 70
149 537 71
148 537 71
149 537 98
149 537 123
150 537 124
149 537 159
149 537 160
149 537 161
149 537 162
149 537 163
149 537 164
149 537 165
149 537 166
149 537 167
149 537 168
149 537 169
149 537 170
149 537 171
149 537 172
149 537 173
149 537 174
149 537 175
149 537 176
149 537 177
149 537 178
149 537 179
149 537 180
149 537 181
149 537 182
149 537 183
149 537 184
149 537 185
149 537 186
149 538 56
149 538 57
148 538 58
148 538 69
148 538 70
149 538 72
149 539 72
149 538 73
149 538 75
149 539 75
150 538 76
150 538 77
150 538 78
150 538 79
149 538 98
148 538 98
150 538 124
149 538 159
149 538 160
149 538 161
149 538 162
149 538 163
149 538 164
149 538 165
149 538 166
149 538 167
149 538 168
149 538 169
149 538 170
149 538 171
149 538 172
149 538 173
149 538 174
149 538 175
149 538 176
149 538 177
149 538 178
149 538 179
148 538 180
148 538 181
149 538 182
149 538 183
149 538 184
149 538 185
149 538 186
149 539 56
149 539 57
148 539 58
148 539 72
149 539 73
149 539 74
149 539 76
150 539 76
149 539 77
150 539 78
149 540 79
150 539 80
150 539 81
148 539 98
148 540 98
150 539 123
149 539 158
149 539 159
149 539 160
149 539 161
149 539 162
149 539 163
149 539 164
149 539 165
149 539 166
149 539 167
149 539 168
149 539 169
149 539 170
149 539 171
149 539 172
149 539 173
149 539 174
149 539 175
149 539 176
149 539 177
149 539 178
148 539 179
148 539 180
148 539 181
148 539 182
149 539 183
149 539 184
149 539 185
149 539 186
149 539 187
149 540 56
149 540 57
150 540 79
150 540 80
150 540 81
150 540 82
150 540 83
149 541 84
149 540 97
149 539 122
149 540 158
149 540 159
149 540 160
149 540 161
149 540 162
149 540 163
149 540 164
149 540 165
149 540 166
149 540 167
149 540 168
149 540 169
149 540 170
149 540 171
149 540 172
149 540 173
149 540 174
149 540 175
149 540 176
149 540 177
148 540 178
148 540 179
148 540 180
148 540 181
148 540 182
149 540 184
148 540 184
149 540 185
149 540 186
149 540 187
149 541 56
149 541 57
150 541 83
150 541 84
149 541 85
149 541 86
149 541 87
149 541 92
149 541 93
149 541 94
149 541 95
149 541 97
148 541 97
150 540 122
149 541 157
149 541 158
149 541 159
149 541 160
149 541 161
149 541 162
149 541 163
149 541 164
149 541 165
149 541 166
149 541 167
149 541 168
149 541 169
149 541 170
149 541 171
149 541 172
149 541 173
149 541 174
149 541 175
149 541 176
149 541 177
149 541 178
148 541 179
148 541 180
148 541 181
148 541 182
148 541 183
148 541 184
148 541 185
149 541 186
149 541 187
149 541 188
149 542 56
149 542 57
149 542 85
149 542 86
149 542 87
149 542 88
149 542 89
149 542 90
149 542 91
149 542 92
149 542 93
149 542 94
149 542 95
149 542 96
148 542 97
149 541 96
149 542 121
150 542 156
149 542 157
149 542 158
149 542 159
149 542 160
149 542 161
149 542 162
149 542 163
149 542 164
149 542 165
149 542 166
149 542 167
149 542 168
149 542 169
149 542 170
149 542 171
149 542 172
149 542 173
149 542 174
149 542 175
149 542 176
149 542 177
148 542 178
148 542 179
148 542 180
148 542 181
148 542 182
148 542 183
148 542 184
148 542 185
148 542 186
149 542 188
149 542 189
149 543 56
149 543 57
148 543 86
149 541 88
149 543 90
149 543 91
149 541 90
149 541 91
149 543 94
149 543 95
148 543 96
148 542 96
148 540 97
149 543 121
150 543 156
149 543 157
149 543 158
149 543 159
149 543 160
149 543 161
149 543 162
149 543 163
149 543 164
149 543 165
149 543 166
149 543 167
149 543 168
149 543 169
149 543 170
149 543 171
148 543 172
148 543 173
148 543 174
148 543 175
149 543 176
148 543 177
148 543 178
148 543 179
148 543 180
148 543 181
148 543 182
148 543 183
148 543 184
148 543 185
148 543 186
148 543 187
149 543 188
149 544 56
149 544 57
149 544 121
150 544 156
149 544 157
149 544 158
149 544 159
149 544 160
149 544 161
149 544 162
149 544 163
149 544 164
149 544 165
149 544 166
149 544 167
149 544 168
149 544 169
148 544 170
148 544 171
148 544 172
148 544 173
148 544 174
148 544 175
148 544 176
148 544 177
148 544 178
148 544 179
148 544 180
148 544 181
148 544 182
148 544 183
148 544 184
148 544 185
149 544 187
148 544 187
149 544 188
149 545 56
149 545 57
149 545 121
150 545 156
149 545 158
149 545 159
149 545 160
149 546 160
149 545 161
149 545 162
149 545 163
149 545 164
149 545 165
149 545 166
149 545 167
149 545 168
148 545 169
148 545 170
148 545 171
148 545 172
148 545 173
148 545 174
148 545 175
148 545 176
148 545 177
148 545 178
148 545 179
148 545 180
148 545 181
148 545 182
148 545 183
148 545 184
148 545 185
148 545 186
149 545 187
149 545 188
149 546 56
149 546 57
149 546 121
150 546 156
150 546 157
149 546 158
149 546 159
149 546 161
149 546 162
149 546 163
149 546 164
149 546 165
149 546 166
149 546 167
148 546 167
148 546 168
148 546 169
148 546 170
148 546 171
148 546 172
147 546 173
147 546 174
147 546 175
147 546 176
147 546 177
147 546 178
147 546 179
147 546 180
147 546 181
147 546 182
147 546 183
148 546 185
148 546 186
149 546 187
149 547 187
149 546 188
149 547 56
149 547 57
149 548 122
150 547 156
149 547 158
149 548 158
149 548 187
149 547 188
149 548 56
149 548 57
149 549 122
149 549 156
149 548 157
149 549 157
149 548 188
149 549 188
149 549 56
149 549 57
149 549 121
150 549 156
149 550 157
149 549 187
149 550 188
149 550 56
148 550 57
149 550 121
149 550 156
149 551 157
149 550 187
150 550 188
149 551 56
148 551 57
149 551 121
149 551 156
149 552 157
149 551 187
150 551 188
149 552 56
148 552 57
149 552 121
149 552 156
149 553 157
149 552 187
150 552 188
149 553 56
148 553 57
149 553 121
149 553 156
149 553 158
150 553 187
150 554 187
149 554 56
149 555 57
149 554 120
149 554 156
149 554 157
149 554 185
149 554 186
150 554 186
149 555 56
149 556 57
148 556 58
149 555 120
149 555 156
149 555 157
149 554 158
149 556 183
149 555 184
149 555 185
150 555 186
149 556 56
149 557 57
148 557 58
148 556 57
149 556 120
149 556 156
149 556 157
148 556 158
148 557 182
149 556 184
149 557 184
149 557 56
148 557 57
148 558 58
149 558 57
149 557 120
147 557 122
149 557 156
148 557 157
148 556 157
148 558 181
149 558 182
149 559 57
148 559 58
148 558 57
148 559 57
149 558 119
149 558 155
148 558 157
148 559 157
148 559 180
148 559 181
149 559 56
149 560 57
148 560 57
149 561 57
148 561 57
150 559 119
148 559 156
148 558 156
148 560 179
149 560 56
149 561 56
149 562 57
149 558 56
149 562 56
150 562 56
150 560 118
150 559 118
148 560 155
148 560 156
147 560 157
148 561 178
149 560 55
149 563 56
150 563 56
150 561 55
150 564 56
150 560 55
151 561 118
151 562 118
149 561 153
148 561 154
148 561 155
148 562 177
150 562 55
150 563 55
150 565 56
150 564 55
149 559 55
150 559 55
151 562 117
150 564 119
149 562 150
149 562 151
149 562 152
148 562 153
148 562 154
147 562 155
148 563 176
149 563 177
150 565 55
151 565 55
150 563 54
150 566 55
151 566 55
150 562 54
151 563 116
151 563 118
150 563 147
149 563 148
149 563 149
149 563 150
149 563 151
148 563 152
148 562 152
149 564 176
151 564 54
150 567 55
151 567 55
151 563 54
151 565 54
151 568 55
151 564 116
150 565 119
149 564 147
150 564 147
149 564 148
149 564 149
149 564 150
148 563 151
147 563 153
149 564 175
151 566 54
151 567 54
151 569 55
151 562 54
151 568 54
151 570 55
151 565 117
150 567 120
150 565 145
149 565 146
149 565 147
149 565 148
148 564 149
150 563 148
146 565 153
149 565 174
151 565 53
151 569 54
152 569 54
151 570 54
151 564 53
152 570 54
151 566 117
151 566 119
150 566 144
149 566 145
149 566 146
149 566 147
149 567 147
149 567 146
149 566 173
149 567 173
152 567 53
152 568 53
151 571 54
152 566 53
152 571 54
151 572 54
150 568 119
151 567 119
150 567 143
149 567 144
149 567 145
149 568 145
150 566 145
149 567 171
152 569 53
152 570 53
152 572 54
151 573 54
153 569 53
152 573 54
151 568 119
150 570 121
150 568 142
149 568 143
149 568 144
150 568 144
149 569 144
149 568 170
152 571 53
153 570 53
151 574 54
152 572 53
152 574 54
153 571 53
151 569 120
150 571 123
149 569 141
149 569 142
149 569 143
149 570 143
148 570 143
150 567 144
149 569 169
152 573 53
153 572 53
152 569 52
152 575 54
153 573 53
152 574 53
151 570 121
151 571 122
149 570 141
149 570 142
149 571 142
150 569 142
147 572 145
149 570 167
149 570 168
153 571 52
152 575 53
152 576 54
153 574 53
152 577 54
153 575 53
151 571 123
150 572 124
149 571 140
149 571 141
149 572 142
148 572 143
148 571 142
147 573 146
149 571 166
153 572 52
152 576 53
153 573 52
153 576 53
152 578 54
152 577 53
149 572 125
149 572 139
149 572 140
149 572 141
148 572 142
148 573 143
149 574 144
148 574 145
149 575 146
149 572 164
149 572 165
153 574 52
153 575 52
153 577 53
152 579 54
152 578 53
153 578 53
150 573 125
149 573 139
149 573 140
149 573 141
149 573 142
149 574 143
148 574 144
149 575 145
148 575 146
149 575 147
149 575 148
150 573 163
153 576 52
152 579 53
152 580 54
154 574 52
153 579 53
152 581 54
151 574 125
149 574 140
149 574 141
149 574 142
149 575 143
149 575 144
150 575 144
150 576 146
148 575 148
149 575 149
149 575 150
149 576 150
150 576 151
150 575 153
150 574 161
150 573 162
153 577 52
152 580 53
154 575 52
153 578 52
153 580 53
152 582 54
151 575 125
149 575 142
150 576 144
150 576 145
150 576 147
150 576 148
149 576 149
150 576 149
150 576 150
150 576 152
150 576 153
150 575 154
150 576 154
150 575 155
150 574 159
150 574 160
153 579 52
152 581 53
154 576 52
154 577 52
153 581 53
152 583 54
151 576 125
151 576 126
151 576 151
151 576 152
151 576 153
150 576 155
150 575 156
150 575 157
151 576 157
151 576 158
153 580 52
152 582 53
154 578 52
153 582 53
152 584 54
154 579 52
151 577 125
153 581 52
154 580 52
153 583 53
152 585 54
153 582 52
153 584 53
151 578 124
152 578 126
154 581 52
153 583 52
154 582 52
152 586 54
153 585 53
152 587 54
150 579 123
151 579 124
152 579 125
153 584 52
154 583 52
153 586 53
152 588 55
153 587 54
152 588 54
151 580 123
152 580 125
154 584 52
154 581 51
153 587 53
152 589 55
153 588 54
152 589 54
149 581 122
150 581 122
153 586 52
154 585 52
153 588 53
152 590 55
153 589 54
152 590 54
149 582 121
150 582 121
153 587 52
154 586 52
153 589 53
152 591 55
153 590 54
152 591 54
149 583 120
149 583 121
154 587 52
154 584 51
153 590 53
152 592 55
153 591 54
152 592 54
149 584 119
149 584 120
154 588 52
154 585 51
153 591 53
152 593 55
153 592 54
152 593 54
149 585 118
149 585 119
154 589 52
153 592 53
152 594 55
153 593 54
150 586 117
150 586 118
154 590 52
152 594 54
153 594 54
149 587 117
149 588 118
153 593 53
152 595 54
153 595 54
153 594 53
154 591 52
150 588 116
149 589 117
154 592 52
153 596 54
153 595 53
153 597 54
150 589 116
149 590 118
153 594 52
153 596 53
154 593 52
149 590 117
149 591 118
153 595 52
153 598 54
153 597 53
154 594 52
148 591 118
149 592 118
153 599 54
153 598 53
154 595 52
148 592 118
149 593 118
153 600 54
154 598 53
153 599 53
149 594 118
154 596 52
153 601 54
154 599 53
148 595 119
147 594 119
153 600 53
153 602 54
154 600 53
148 596 119
153 601 53
153 603 54
154 597 52
149 597 119
147 596 120
153 602 53
154 601 53
153 604 54
148 597 119
153 603 53
154 602 53
153 605 54
148 599 120
154 603 53
153 604 53
153 606 54
148 600 120
153 605 53
152 608 55
154 604 53
149 601 120
153 607 54
152 609 55
153 606 53
149 602 120
154 605 53
153 608 54
152 610 55
148 602 120
153 607 53
153 610 55
153 609 54
149 603 120
152 611 55
154 606 53
153 611 55
149 604 120
153 610 54
152 612 55
153 608 53
149 605 120
153 612 55
153 611 54
153 609 53
149 606 120
153 613 55
153 612 54
152 615 56
149 607 121
153 610 53
153 614 55
152 616 56
149 608 121
153 613 54
153 615 55
152 617 56
149 609 121
153 614 54
153 616 55
152 618 56
149 610 122
153 615 54
152 619 57
153 617 55
149 612 123
151 620 57
152 619 56
152 620 57
149 613 124
153 616 54
153 618 55
152 620 56
149 614 124
152 621 57
153 620 56
153 619 55
149 615 124
152 621 56
152 622 57
152 623 58
149 615 123
153 621 56
152 622 56
152 623 57
149 616 123
153 620 55
152 624 58
153 622 56
149 617 123
152 624 57
152 625 58
153 623 56
149 619 124
152 625 57
152 626 58
148 619 124
153 625 57
152 626 57
152 628 59
152 627 58
149 621 125
153 624 56
153 626 57
152 629 59
152 628 58
152 630 59
152 629 58
149 621 124
152 627 57
153 625 56
153 627 57
152 631 59
152 628 57
152 630 58
151 632 59
152 632 59
149 622 125
153 626 56
153 628 57
152 629 57
152 631 58
151 633 59
139 618 90
149 623 124
153 627 56
153 629 57
152 630 57
152 633 59
151 635 60
138 620 90
149 624 124
153 628 56
153 630 57
152 632 58
151 634 59
151 637 61
138 632 89
150 625 123
149 625 124
153 629 56
153 631 57
152 634 59
152 633 58
151 636 60
137 626 90
149 627 123
153 630 56
153 632 57
152 634 58
152 636 60
152 635 59
151 639 62
150 627 123
153 634 58
153 633 57
151 637 60
151 638 61
151 640 63
150 642 65
150 628 122
152 635 58
152 636 59
152 637 60
151 638 60
151 639 61
150 641 63
149 629 122
153 635 58
152 636 58
152 637 59
152 638 60
151 640 62
151 641 63
150 642 64
149 630 122
153 634 57
153 636 58
152 638 59
151 640 61
151 641 62
150 643 65
149 631 122
152 637 58
152 639 60
152 640 61
150 642 63
151 642 63
149 644 66
150 644 66
149 632 121
153 637 58
152 639 59
151 641 61
152 640 60
150 643 64
151 642 62
150 644 65
149 633 121
152 638 58
152 641 61
151 643 63
151 642 61
150 644 64
149 645 66
150 645 66
149 634 121
152 640 59
152 641 60
151 643 62
152 642 61
150 645 65
149 646 67
149 647 68
149 635 121
152 639 58
151 644 63
150 645 64
151 644 62
149 646 66
150 646 66
145 647 76
149 636 121
152 642 60
152 643 61
151 645 63
150 646 65
149 647 67
149 647 66
146 648 75
149 637 120
152 641 59
150 646 64
150 647 66
150 647 65
149 648 68
149 638 120
151 645 62
151 646 63
150 647 64
149 648 67
145 648 76
149 639 119
152 644 61
151 647 64
150 648 66
149 649 68
148 639 119
151 646 62
150 648 65
149 649 67
150 649 66
144 647 77
149 641 118
151 647 63
150 648 64
151 648 64
150 650 67
150 649 65
149 642 118
151 647 62
150 649 64
150 650 66
150 651 67
145 651 75
149 643 118
151 648 63
150 650 65
150 651 66
146 652 74
149 644 118
151 649 64
150 650 64
151 650 64
147 653 73
149 645 118
151 649 63
150 653 67
149 654 70
149 646 118
150 651 64
150 653 66
148 654 72
149 647 118
151 651 64
150 654 67
149 655 70
149 648 118
150 653 65
149 655 68
150 654 66
149 649 118
149 655 67
150 655 67
148 656 72
149 650 117
151 651 63
151 652 64
150 654 65
149 651 117
151 652 63
151 653 63
151 653 64
151 654 65
149 652 117
150 655 66
150 655 65
149 653 117
149 656 68
150 656 67
149 654 117
150 656 66
149 657 68
149 655 117
150 657 67
150 657 68
149 656 117
149 658 68
149 658 69
149 657 117
150 658 68
149 659 69
149 658 117
150 659 68
150 659 69
149 659 118
150 660 69
149 660 118
150 661 69
150 661 70
149 661 118
150 662 69
150 662 70
149 662 118
150 663 70
150 662 71
149 663 118
150 664 70
150 664 71
148 665 119
150 665 70
150 665 71
149 666 119
150 666 71
150 665 72
148 666 119
150 667 71
150 668 71
149 668 120
150 669 71
150 669 72
149 669 120
151 670 72
150 671 72
149 670 120
151 670 71
151 671 72
149 671 121
150 672 72
150 673 73
149 672 121
150 674 73
151 672 72
149 673 122
150 675 73
151 673 72
149 674 122
151 675 73
150 676 73
149 675 123
151 675 72
151 676 73
149 676 123
151 677 74
150 678 74
149 677 123
151 678 74
150 679 75
149 677 124
151 679 74
151 679 75
149 678 124
150 680 75
149 679 124
150 680 76
150 681 77
149 680 125
150 682 76
150 682 77
149 681 125
150 683 77
150 683 78
149 682 126
151 683 76
150 684 78
149 683 126
150 685 78
150 685 79
150 684 126
151 685 77
150 686 79
149 684 127
150 687 79
150 686 127
150 688 79
150 687 80
150 687 128
151 688 78
150 688 80
151 688 128
150 689 80
150 689 129
151 690 79
150 690 81
151 690 129
151 691 80
150 691 81
150 691 130
151 692 80
150 692 82
150 692 130
151 693 81
150 693 82
150 693 131
150 694 83
149 693 83
151 693 130
151 695 82
150 695 83
150 694 132
150 696 83
149 695 84
151 696 131
151 697 83
150 697 84
151 697 132
150 698 84
149 699 85
150 699 133
150 699 85
149 700 85
150 700 133
150 700 85
150 701 85
151 700 132
149 701 86
150 701 86
150 701 134
150 702 86
150 703 86
150 702 134
150 704 86
149 703 135
150 705 86
150 705 87
149 704 135
149 704 152
149 704 153
149 704 154
149 704 155
149 704 156
149 704 157
150 706 87
151 705 87
149 705 135
149 705 152
149 705 153
149 705 154
149 705 155
149 705 156
149 705 157
149 707 87
150 707 88
149 707 135
149 706 152
149 706 153
149 706 154
149 706 155
149 706 156
149 706 157
150 708 88
150 707 135
149 707 152
149 707 153
149 707 154
149 707 155
149 707 156
149 707 157
150 709 88
150 710 89
149 708 135
147 708 137
149 708 152
149 708 153
149 708 154
149 708 155
148 708 156
148 708 157
149 707 158
149 710 88
150 710 88
149 709 135
149 710 136
149 709 152
149 709 153
148 709 154
148 709 155
148 709 156
148 709 157
148 709 158
150 711 89
149 711 136
148 710 136
149 710 152
149 710 153
148 710 154
148 710 156
148 710 157
148 710 158
148 710 159
148 709 159
149 712 89
149 712 136
149 711 152
148 711 153
148 712 153
147 711 155
147 711 156
148 711 158
148 711 159
148 711 160
150 712 89
150 713 90
149 713 137
149 712 152
148 713 153
147 712 154
147 712 155
147 712 156
147 712 157
148 712 159
148 712 160
148 713 160
149 714 90
149 713 136
149 713 152
148 713 152
147 713 154
147 713 156
147 713 157
147 713 158
147 712 158
148 714 160
148 713 161
150 714 90
149 714 137
149 714 152
148 714 152
147 714 159
148 714 161
149 714 162
149 714 163
149 715 163
149 715 90
150 715 90
149 715 137
149 715 138
149 715 151
149 715 152
148 715 161
148 715 162
149 716 163
149 715 164
150 716 91
149 716 138
149 717 138
149 716 151
149 716 152
149 717 163
149 716 164
149 717 91
149 718 138
152 718 142
149 717 151
149 718 151
149 717 164
149 717 165
150 717 166
149 718 91
149 719 92
150 718 138
152 718 144
149 718 150
149 718 165
150 718 166
149 720 92
150 719 138
151 720 145
150 719 150
149 719 151
149 719 165
150 719 166
150 719 167
149 721 92
150 720 138
149 720 139
151 721 145
150 719 149
149 720 166
150 720 167
150 721 92
150 721 93
149 721 139
151 721 144
151 720 146
151 719 149
150 718 150
149 721 167
150 721 168
150 722 92
150 722 93
149 722 139
150 722 139
150 722 142
150 723 142
151 722 143
151 720 147
151 719 147
151 719 148
150 718 149
149 722 167
149 722 168
150 723 93
151 721 143
151 722 142
151 719 146
152 720 145
151 718 148
149 723 168
150 723 169
150 724 93
150 723 141
152 719 146
149 724 168
149 725 169
150 725 93
150 725 94
149 725 168
150 725 169
150 725 170
150 726 94
149 726 169
150 726 170
150 727 94
150 727 169
150 727 170
150 728 94
150 729 94
150 728 169
149 728 171
151 729 95
150 729 169
149 729 170
149 729 171
150 731 95
149 730 171
150 730 171
149 730 172
151 731 95
150 731 170
150 731 171
151 732 95
150 732 170
150 732 171
149 732 172
151 733 95
150 733 170
149 733 171
149 733 172
149 733 173
151 734 95
149 734 171
149 734 172
149 734 173
151 735 95
151 735 96
149 735 171
149 735 172
149 735 173
151 736 95
149 736 172
149 736 173
149 736 174
151 737 96
148 737 172
148 737 173
148 737 174
151 739 96
148 738 172
148 738 173
148 738 174
148 738 175
149 738 176
151 739 97
148 739 173
148 739 174
148 739 175
152 740 97
148 740 173
148 740 174
148 740 175
149 740 177
149 739 177
152 741 97
152 742 97
148 741 174
148 741 175
148 741 176
149 741 177
149 741 178
152 743 97
152 744 97
148 742 174
148 742 175
148 742 176
148 742 177
149 742 178
149 742 180
151 745 97
152 745 97
148 743 175
148 743 176
148 743 177
149 743 179
149 744 179
149 743 181
151 746 97
152 746 97
148 744 175
148 744 176
148 744 177
148 744 178
148 744 179
149 744 180
149 744 181
149 744 182
150 744 184
151 748 97
148 745 176
148 745 177
148 745 178
148 745 179
149 745 180
149 745 181
149 745 182
149 745 183
152 747 97
148 746 179
149 746 180
149 746 181
149 746 182
149 746 183
152 749 97
148 747 179
149 747 181
148 747 181
149 747 182
149 747 183
152 750 97
149 748 181
148 748 181
149 748 182
149 748 183
152 751 97
149 749 181
149 749 182
152 753 96
151 753 97
149 750 181
149 750 182
152 752 97
153 752 96
148 751 181
149 751 182
152 754 96
152 753 97
149 752 182
153 754 95
152 755 96
149 753 182
149 753 183
153 756 94
149 754 183
149 755 183
152 756 96
148 755 182
149 756 183
153 757 94
148 756 182
149 756 184
152 759 95
149 757 183
153 758 94
149 758 183
153 759 93
149 759 183
153 760 93
153 761 93
149 760 183
153 762 93
153 760 94
149 761 183
149 761 184
153 763 93
149 762 183
149 762 184
153 764 93
149 763 183
149 763 184
153 766 92
149 764 183
153 767 92
149 765 183
150 765 184
153 767 91
149 766 183
153 768 91
150 767 183
154 768 91
150 768 183
154 769 91
150 769 182
154 770 91
151 770 183
154 771 91
154 771 90
151 771 182
154 772 90
154 773 90
150 771 181
151 772 182
154 774 90
151 773 181
151 773 182
154 775 90
150 776 180
154 776 90
154 777 90
151 775 180
154 778 90
154 779 90
150 777 179
153 781 90
149 778 178
154 780 90
150 778 178
153 782 90
150 779 178
153 783 91
149 781 177
153 783 90
149 782 177
153 784 91
150 783 176
152 786 91
149 784 176
153 785 91
150 785 175
152 787 91
149 786 175
152 788 91
149 787 174
152 789 91
150 787 174
152 790 92
149 789 173
152 791 92
149 790 172
151 793 92
149 791 172
152 792 92
149 792 172
151 795 93
150 792 171
151 796 93
149 793 171
150 797 93
149 794 171
151 797 93
149 795 170
150 798 93
149 796 170
151 798 93
149 797 169
150 800 94
149 798 169
151 799 94
149 799 168
150 801 94
149 800 167
151 802 95
149 801 167
150 803 95
149 802 166
149 804 95
149 803 166
150 804 95
149 804 165
150 806 96
149 806 164
149 807 96
150 806 164
150 808 97
149 807 164
149 808 96
149 808 163
149 809 97
149 809 162
149 810 98
149 810 162
149 811 98
149 811 161
149 812 99
149 812 161
150 813 100
149 813 161
149 814 100
150 814 100
149 814 160
150 815 101
150 816 101
149 815 159
151 817 102
149 816 159
151 818 102
151 818 103
149 817 158
150 819 104
150 820 104
150 818 158
151 820 104
150 821 105
150 819 157
150 818 157
151 821 105
150 820 157
151 821 104
150 823 106
149 820 156
151 822 106
150 824 107
150 822 155
150 821 155
151 824 107
151 824 108
150 823 154
151 823 154
150 825 108
150 825 109
150 824 153
150 826 109
151 826 109
151 825 153
151 824 154
151 827 110
151 828 111
151 826 152
151 825 152
151 828 110
151 827 152
152 827 152
151 829 111
151 830 112
152 828 150
152 828 151
152 829 112
152 830 113
152 827 151
153 829 150
151 831 115
151 831 116
151 832 116
153 830 149
153 831 149
152 831 113
152 831 114
150 832 117
150 832 118
154 831 148
154 832 148
150 833 118
149 833 120
150 833 120
154 833 147
154 831 149
149 833 121
153 835 145
154 834 146
149 834 122
149 834 123
153 836 144
149 835 124
153 836 143
149 835 125
149 836 126
152 837 142
151 838 141
153 837 143
149 836 127
149 837 128
149 837 129
149 837 130
149 837 131
149 838 132
149 838 133
149 838 134
149 839 135
149 839 136
149 839 137
150 838 139
150 838 140
149 839 139
151 838 140
152 838 141
151 465 106
151 465 107
151 464 109
151 464 110
151 464 111
151 465 104
151 465 105
150 466 106
150 464 112
150 464 113
151 465 102
151 465 103
150 464 114
150 464 115
151 466 100
151 466 101
151 466 102
150 465 117
150 466 119
150 468 98
151 467 99
150 467 120
151 467 120
150 469 97
151 468 97
151 468 98
150 470 96
150 470 97
151 471 125
151 470 95
151 470 96
151 469 97
151 471 95
150 472 96
151 472 96
151 472 95
150 473 96
151 473 97
150 473 127
151 473 96
150 473 98
151 474 95
150 475 96
151 476 92
151 475 93
151 475 94
151 476 91
150 476 93
150 476 129
150 477 90
150 477 91
150 479 132
150 478 90
151 479 132
151 480 134
150 479 89
150 480 89
150 481 89
151 482 90
150 483 91
150 482 94
150 481 96
150 481 97
151 481 97
149 484 103
149 485 104
149 485 105
149 486 106
151 482 135
151 483 91
150 483 92
151 482 94
151 482 95
151 482 96
151 483 136
150 483 90
150 483 93
151 483 93
152 482 94
152 482 95
151 482 97
151 484 136
151 483 99
151 484 100
150 484 101
150 485 102
150 485 136
150 486 102
150 488 135
151 489 104
150 490 135
150 491 135
151 491 135
150 492 135
150 493 135
151 493 135
150 494 135
152 494 104
152 494 103
152 493 104
150 497 134
149 500 132
153 502 102
153 501 102
150 503 130
150 503 61
150 503 62
149 503 63
153 504 101
150 503 129
150 504 60
150 504 61
149 504 62
149 504 63
149 504 64
154 503 102
154 502 102
150 504 129
150 505 60
149 505 61
149 505 62
149 505 63
149 505 64
149 505 65
154 505 101
154 504 101
154 506 101
151 504 129
150 506 59
150 506 60
149 506 61
149 506 62
149 506 63
149 506 64
149 506 65
154 507 101
154 507 100
154 503 101
150 506 128
150 507 59
150 507 60
149 507 61
149 507 62
149 507 63
149 507 64
149 507 65
154 508 100
154 509 100
154 510 101
150 507 128
150 508 58
150 508 59
149 508 60
149 508 61
149 508 62
148 508 63
149 508 65
149 509 65
149 508 66
154 510 100
154 511 101
155 508 100
150 508 128
150 509 58
150 509 59
149 509 60
149 509 61
148 509 62
148 509 64
149 509 66
150 509 67
154 511 100
155 509 100
151 508 128
150 510 58
150 510 59
149 510 60
149 511 60
148 511 61
148 510 64
149 510 66
150 510 67
150 510 68
154 512 100
155 510 100
150 510 127
150 511 58
150 511 59
149 511 59
149 512 60
148 511 63
148 511 64
148 512 64
149 511 66
150 511 67
149 511 67
154 513 100
155 511 100
150 511 127
150 512 127
150 512 58
149 512 59
149 513 60
148 512 60
148 513 60
149 513 65
149 512 66
150 512 67
149 512 67
154 514 100
155 512 100
151 512 127
149 513 58
149 513 59
149 514 59
148 514 60
149 514 65
149 513 66
150 513 67
149 513 67
154 515 100
154 516 100
150 513 127
151 514 55
149 514 58
149 515 59
148 515 60
148 515 59
149 515 65
150 514 67
149 514 67
150 514 68
154 514 99
154 517 100
150 514 127
151 514 176
151 514 177
151 514 178
151 514 179
151 515 55
149 515 58
149 516 59
148 516 60
148 516 63
149 516 65
149 515 66
150 515 67
149 515 67
150 515 68
154 515 99
154 516 99
154 518 100
150 515 127
151 515 127
150 515 171
150 515 172
150 515 173
151 515 174
151 515 177
151 515 178
151 515 179
149 516 58
149 517 59
148 516 59
148 517 59
149 516 66
150 516 67
150 517 67
150 516 68
154 517 99
153 519 99
154 518 99
150 516 127
150 516 169
150 516 170
150 516 171
151 516 177
151 516 178
151 516 179
149 517 58
149 518 59
148 518 59
149 517 66
149 517 67
150 517 68
154 519 99
154 517 98
155 516 99
150 517 127
150 517 167
150 517 168
151 517 177
151 517 178
151 517 179
151 517 180
149 518 58
149 519 58
148 519 60
149 518 66
150 518 67
150 518 68
151 518 69
150 518 127
150 518 165
150 518 166
149 518 167
151 518 178
151 518 179
151 518 180
150 519 57
149 520 58
148 519 59
149 519 66
150 519 67
150 519 68
151 519 69
153 521 98
150 519 127
150 519 164
150 519 165
150 520 178
151 519 179
151 519 180
150 520 57
149 521 58
148 520 59
149 520 66
150 520 67
150 520 68
150 520 69
153 522 98
151 519 127
150 520 163
151 520 178
150 521 179
151 520 180
151 521 54
149 522 58
148 521 59
148 522 59
150 521 68
150 521 69
151 521 69
153 523 98
151 521 128
150 521 161
150 521 162
150 522 178
151 521 179
151 521 180
151 521 181
151 522 54
149 522 57
149 521 57
148 523 59
150 522 68
150 522 69
152 524 98
151 522 128
