ply
format ascii 1.0
comment Created by Open3D
element vertex 4087
property double x
property double y
property double z
end_header
130 479 112
130 481 107
129 480 114
130 481 106
129 482 106
129 481 116
130 482 106
129 482 118
130 483 106
129 482 120
130 484 106
129 484 122
129 484 123
130 484 124
130 485 125
131 485 126
130 485 124
131 486 126
131 487 126
131 487 125
131 488 126
128 488 107
131 489 126
131 486 125
130 491 125
131 490 126
129 490 107
130 492 125
131 491 126
129 491 107
129 493 124
129 492 107
130 493 125
129 494 124
129 494 106
129 493 106
129 494 125
129 495 106
129 495 124
130 496 106
130 495 106
130 497 106
130 498 106
129 499 105
130 498 105
129 500 105
130 499 105
129 499 125
129 501 105
130 500 105
129 500 125
130 501 105
130 502 105
129 503 105
130 503 105
130 502 126
129 504 105
130 504 105
130 503 126
130 504 126
130 504 104
126 503 106
130 505 126
129 506 104
130 505 104
129 507 104
130 506 104
129 508 104
130 507 104
129 509 104
130 508 104
129 510 104
129 511 105
130 510 104
130 512 105
129 510 125
129 511 104
130 513 105
130 512 104
130 514 105
128 512 124
130 515 106
131 514 105
130 515 105
130 516 106
130 513 126
131 514 127
130 516 105
130 517 106
130 516 126
130 518 106
131 517 106
130 517 126
131 518 106
130 519 107
130 518 126
131 519 106
130 520 107
130 519 126
131 520 106
130 521 107
129 519 125
131 520 107
130 522 107
129 520 125
130 520 126
131 521 107
131 522 107
130 521 126
130 522 126
129 523 125
129 524 125
129 526 126
130 526 126
129 527 126
129 528 126
129 529 107
129 529 126
129 530 107
129 530 126
129 531 107
129 531 126
129 532 126
129 533 126
129 534 126
129 535 106
129 535 126
129 536 106
129 537 106
129 536 126
130 538 105
129 537 126
129 538 126
129 539 126
129 540 126
129 541 126
130 542 126
129 543 105
130 543 126
129 544 105
129 545 126
129 545 104
129 545 105
129 546 126
130 545 126
130 546 126
129 547 126
129 548 104
129 548 126
129 549 126
129 550 126
129 551 103
130 551 126
129 552 102
130 552 126
130 553 126
130 554 126
129 555 102
129 555 126
130 556 126
130 557 126
129 558 101
130 558 126
130 559 126
130 560 126
130 561 126
129 562 100
130 562 126
129 563 100
130 563 126
130 564 126
130 564 127
131 566 126
131 567 126
129 568 99
131 568 126
129 569 98
131 569 126
131 570 126
131 571 126
131 572 126
129 573 98
130 574 126
128 574 98
130 575 126
129 575 97
130 576 126
130 577 126
130 578 126
130 579 126
129 579 97
130 580 126
129 580 97
130 581 126
129 581 97
130 582 126
130 583 126
130 584 126
130 585 126
129 585 96
130 586 126
129 586 96
129 587 126
129 587 95
130 587 126
129 588 126
130 589 126
129 590 127
129 591 95
129 591 127
129 592 94
129 592 127
129 593 127
129 594 127
129 595 127
129 596 127
129 597 127
129 597 94
129 598 127
129 599 127
130 600 127
129 601 128
129 602 128
129 603 128
129 604 93
129 604 128
129 605 93
129 605 128
129 606 93
129 606 128
129 607 128
129 609 129
129 610 129
129 611 129
129 612 129
130 612 129
129 613 92
129 613 129
129 614 92
129 614 130
129 615 130
130 616 130
129 617 92
129 618 130
129 618 92
129 619 130
129 620 131
129 621 131
129 622 131
130 622 131
129 624 131
129 625 131
129 626 131
129 627 131
130 627 131
129 628 131
129 629 92
129 629 131
129 630 131
129 631 92
129 631 131
129 632 92
129 632 131
129 633 92
129 634 92
129 633 131
130 634 91
129 635 92
129 634 131
130 635 91
128 635 92
129 635 131
130 636 91
129 636 92
129 636 131
130 637 91
129 637 92
129 637 131
129 638 92
129 639 92
129 638 130
129 639 91
128 639 92
129 639 130
129 640 91
129 640 92
129 640 130
129 641 130
129 642 130
129 643 130
129 644 130
130 645 90
129 645 130
129 645 91
129 646 130
131 647 89
129 647 130
131 647 88
129 648 130
132 649 88
129 649 130
132 648 88
129 650 130
133 651 87
129 651 130
133 650 87
133 652 86
129 652 130
134 652 86
134 651 87
129 653 130
129 654 75
129 654 76
129 653 77
129 653 78
133 652 84
129 654 130
129 656 74
129 652 79
132 652 83
129 655 130
130 656 74
130 657 74
130 652 80
132 652 82
129 656 130
130 658 73
131 652 81
133 652 83
132 651 83
129 657 130
130 659 73
130 652 79
134 652 84
134 652 85
129 658 130
131 659 73
129 659 130
131 660 73
129 660 130
131 661 72
131 661 73
129 661 130
131 662 72
131 662 73
129 662 130
131 663 72
129 663 130
131 664 72
129 664 130
130 666 72
129 665 130
130 667 72
129 666 130
130 667 73
130 667 131
130 668 72
130 669 72
129 668 131
130 669 71
130 669 131
130 670 71
130 670 72
130 670 132
130 671 71
130 671 72
130 671 132
130 672 71
130 672 132
130 673 71
130 673 132
130 674 71
130 674 132
130 675 71
130 675 132
130 676 71
129 676 133
130 677 71
129 677 133
131 678 71
129 678 133
131 679 71
129 679 133
131 680 71
129 680 133
131 681 71
131 682 71
129 681 133
131 683 71
130 684 71
129 682 133
131 684 72
129 683 133
131 684 71
129 684 133
131 685 72
131 686 72
129 685 133
131 687 72
131 685 71
130 686 133
131 688 72
129 687 133
131 689 72
129 688 133
131 690 72
129 689 133
131 691 72
129 690 133
131 692 72
129 691 133
131 693 72
129 692 133
131 694 72
130 695 72
129 693 133
130 696 72
131 695 72
129 694 133
131 696 73
129 695 133
131 697 73
130 696 133
131 698 73
129 697 134
131 699 73
131 700 73
129 698 134
130 701 73
132 700 74
130 699 134
130 702 73
129 700 134
131 701 73
130 701 134
130 703 73
130 702 135
130 704 73
129 703 135
131 704 74
129 704 135
131 705 74
131 706 74
129 705 135
130 707 74
130 708 74
131 708 75
131 709 75
131 710 75
129 709 136
129 710 136
131 711 75
129 710 135
131 712 75
129 711 136
131 713 75
129 712 136
131 714 76
129 713 136
131 714 75
129 714 136
130 714 137
132 715 76
129 715 137
132 716 76
130 716 137
132 717 76
130 717 137
130 717 138
132 718 76
131 718 138
131 717 138
133 719 76
131 719 139
133 720 76
133 720 77
134 721 77
134 722 77
134 723 77
134 724 77
130 724 139
134 726 77
135 724 78
130 725 139
135 724 77
135 725 78
130 725 140
135 726 78
135 727 79
131 726 140
135 727 78
135 728 79
135 728 78
135 729 79
135 729 80
134 733 80
135 730 80
134 733 82
134 734 81
134 734 82
134 735 82
134 734 83
134 735 83
134 736 83
134 735 84
133 737 85
133 738 85
134 737 84
133 739 86
130 737 141
133 740 86
133 741 86
133 742 86
131 740 141
133 743 86
133 741 87
130 741 142
133 742 87
130 742 142
133 743 87
133 744 87
130 744 141
133 745 87
134 744 87
129 745 142
134 745 87
130 745 142
130 744 142
134 746 87
130 746 142
130 746 143
130 747 143
134 747 87
130 749 142
130 748 143
134 748 87
134 749 87
130 749 143
131 748 143
131 748 144
134 750 87
134 751 87
130 750 142
130 750 143
134 751 88
130 751 143
130 751 144
134 752 88
129 752 143
130 752 143
134 753 88
134 754 88
129 753 143
134 756 88
135 753 88
129 753 142
134 757 88
129 754 143
130 754 144
134 758 88
135 755 88
129 755 144
134 759 88
134 759 89
129 756 144
134 760 89
129 757 144
133 762 89
129 758 145
129 759 145
134 761 89
129 759 144
130 759 145
133 763 89
134 762 89
129 760 145
134 763 89
133 765 89
129 761 145
134 764 89
129 762 145
133 766 89
134 765 89
129 763 145
129 763 146
133 767 89
134 766 89
129 764 145
129 764 146
134 767 90
129 765 146
133 769 90
134 767 89
129 766 146
133 770 90
134 768 90
129 767 146
133 771 91
129 768 146
129 768 147
133 771 90
129 769 146
129 769 147
132 773 91
129 770 147
133 772 91
132 774 92
129 771 147
132 774 91
133 773 91
129 772 147
129 772 148
132 775 92
129 773 147
129 773 148
132 776 92
133 775 92
129 774 148
133 776 92
132 778 93
129 775 148
133 777 93
129 776 148
129 776 149
133 777 92
133 778 93
129 777 149
130 777 150
133 779 93
133 779 94
129 778 149
130 778 150
132 781 95
129 779 149
130 779 150
133 780 94
133 781 95
129 780 148
130 780 150
132 783 95
133 781 94
129 781 148
130 781 150
132 784 96
133 782 95
130 782 150
130 783 150
132 785 96
130 784 150
130 783 151
132 786 97
133 784 96
130 785 150
130 784 151
132 787 97
132 787 98
130 786 150
130 785 151
132 788 98
130 787 150
130 786 151
132 789 99
133 787 98
130 788 150
132 790 99
133 789 99
130 788 151
133 790 99
130 789 149
130 789 150
133 791 100
132 793 101
130 790 149
130 790 150
133 792 101
132 794 102
130 791 150
130 791 151
133 793 101
132 795 102
130 792 150
130 792 151
133 794 102
132 796 102
130 793 150
130 793 151
133 795 102
133 796 102
130 794 150
130 794 151
132 798 103
133 797 103
130 795 150
130 795 151
132 799 104
133 798 103
130 796 151
129 797 151
132 800 104
133 799 104
129 798 151
132 801 105
129 798 152
129 799 152
133 800 104
132 802 105
129 800 152
129 799 153
133 801 105
132 803 106
129 801 152
129 800 153
133 802 105
133 803 106
129 801 153
130 801 153
133 803 105
132 805 107
129 802 153
129 803 153
133 804 106
129 804 153
129 803 154
132 806 107
132 806 108
129 805 153
129 804 154
132 807 108
129 806 153
132 808 108
132 808 109
129 807 153
132 809 109
132 809 110
132 810 110
130 807 153
132 810 109
132 810 111
131 811 111
132 811 111
129 808 153
130 808 153
132 811 110
131 812 112
131 812 113
132 812 112
130 809 153
130 810 153
132 812 111
131 813 113
131 813 114
132 813 113
130 811 153
130 809 154
132 813 112
131 814 114
131 814 115
130 813 152
130 812 153
131 810 153
130 815 115
131 815 115
130 816 116
130 814 152
131 813 152
131 815 114
131 816 117
131 814 152
130 815 152
131 816 116
130 817 118
130 816 151
131 815 152
130 817 117
130 818 119
131 816 151
131 816 152
130 818 120
130 817 149
130 817 150
131 817 151
130 819 120
129 818 149
130 818 149
130 818 150
130 819 119
129 819 147
129 819 148
130 819 121
129 820 146
129 820 147
129 820 121
129 820 122
129 821 144
129 821 145
129 821 146
129 821 122
129 821 123
129 822 143
128 821 144
129 822 124
130 822 124
128 823 140
129 823 141
129 823 142
130 823 124
129 823 125
129 823 126
129 823 128
129 824 136
129 824 137
129 824 138
128 823 139
129 824 140
129 824 127
129 824 129
129 824 130
129 824 131
129 824 132
129 824 133
129 824 134
129 824 135
132 478 107
131 478 109
131 479 108
131 479 111
131 479 112
131 480 107
130 479 113
130 479 114
130 479 115
130 479 116
131 480 106
131 480 108
130 480 115
130 480 116
130 480 117
130 480 118
131 481 106
129 480 116
130 481 118
129 481 118
130 481 119
131 482 106
129 482 119
130 482 120
130 481 120
130 482 121
130 482 122
129 483 121
130 483 122
130 483 123
130 484 123
130 483 124
131 483 123
131 484 125
131 483 125
131 485 125
131 484 124
132 485 127
132 486 127
132 487 127
132 488 127
132 489 127
130 488 106
132 486 126
132 490 127
133 488 127
132 491 127
130 490 106
130 490 107
130 491 107
130 492 107
131 492 126
131 492 107
131 493 107
131 493 126
130 493 106
131 493 106
130 494 125
130 494 106
131 494 106
130 495 125
131 495 106
131 496 106
130 495 126
131 497 106
132 496 106
130 496 125
131 497 105
132 497 106
130 497 125
131 498 105
132 498 106
130 498 125
131 499 105
131 500 105
131 501 105
132 500 105
131 502 105
132 501 105
130 501 126
132 502 105
130 503 104
131 502 127
131 501 127
132 502 127
131 503 104
131 504 104
131 505 104
132 504 104
131 506 104
132 505 104
131 507 104
132 506 104
131 508 104
132 507 104
130 507 125
130 509 104
131 509 104
131 510 104
132 509 104
130 511 104
131 511 104
131 512 104
132 511 104
131 513 104
132 512 104
131 514 104
131 515 105
131 513 127
131 516 105
132 515 105
129 514 125
131 515 127
131 515 104
132 516 105
131 515 126
131 517 105
132 517 105
131 516 127
132 518 105
132 519 106
131 517 126
132 519 105
132 520 106
131 518 126
131 518 127
132 521 106
133 519 106
131 519 126
132 522 106
132 522 107
130 520 125
130 523 107
131 523 107
130 521 125
130 524 107
129 523 108
130 522 125
131 524 107
129 524 108
130 523 126
130 525 107
131 525 107
130 524 126
130 526 107
131 526 107
130 525 126
131 525 126
129 526 107
130 527 107
131 526 126
130 528 107
131 527 107
130 527 126
130 529 107
131 528 107
130 528 126
131 529 106
130 530 107
130 529 126
130 530 126
130 531 126
130 532 127
130 533 127
130 534 106
130 534 127
130 535 106
130 535 127
130 536 127
130 537 127
130 538 127
130 540 126
130 540 127
130 541 126
130 541 127
130 542 105
130 542 127
130 543 105
130 543 127
130 544 104
130 544 127
130 545 127
130 546 104
130 546 127
130 547 103
130 547 104
130 547 126
130 548 103
130 548 126
130 549 126
130 550 103
130 550 126
130 551 102
131 551 126
131 552 126
131 553 126
130 554 102
131 554 126
130 555 126
130 556 101
131 556 127
130 557 101
131 557 127
131 558 127
131 559 127
130 560 100
130 560 127
130 561 100
130 561 127
130 562 100
130 562 127
130 563 127
131 564 127
131 565 127
130 566 99
131 566 127
130 567 99
131 567 127
130 568 98
131 568 127
131 569 127
132 571 126
132 571 127
130 572 98
131 573 126
130 573 97
131 574 126
130 574 97
131 575 126
131 576 126
131 577 126
130 577 97
131 578 126
130 578 97
131 579 126
130 579 97
131 580 126
131 581 126
131 582 126
131 583 126
130 583 96
131 584 126
130 584 96
131 585 126
130 585 96
131 586 126
130 586 95
131 587 126
130 588 126
131 588 126
130 589 127
130 590 95
130 590 127
130 591 127
130 592 127
130 593 127
130 594 127
130 595 127
130 595 94
130 596 127
130 597 93
130 597 127
130 598 127
130 599 127
130 600 128
130 601 128
130 602 93
130 602 128
130 603 93
130 603 128
130 604 92
130 604 128
130 605 128
130 606 128
130 607 128
130 608 129
130 609 129
130 610 129
130 611 129
130 612 92
131 612 129
130 613 129
130 614 92
130 614 129
130 615 92
130 615 130
130 616 91
130 617 130
131 617 130
130 618 130
130 619 130
130 620 130
130 621 131
130 623 131
130 623 91
131 623 131
130 624 91
129 624 92
130 624 131
130 625 91
129 625 92
130 625 131
130 626 91
129 626 92
130 626 131
130 627 91
129 627 92
130 628 131
130 628 91
129 628 92
130 629 131
130 629 91
130 629 130
130 630 91
129 630 92
130 631 131
130 631 91
130 631 130
130 632 91
130 632 131
130 633 131
130 634 131
130 635 131
130 636 130
130 637 130
130 638 130
130 639 91
130 639 130
130 641 90
130 640 130
130 642 90
130 641 130
130 643 90
130 642 130
131 643 90
130 643 130
130 644 90
130 644 130
130 644 91
130 645 130
131 645 90
130 646 130
131 646 89
130 647 130
131 645 89
130 648 130
132 647 88
130 649 130
133 648 88
133 649 87
130 650 130
134 650 87
133 648 87
130 651 130
134 651 86
134 649 87
130 652 130
134 651 85
130 653 130
130 655 74
130 654 75
130 654 76
129 652 78
130 651 80
133 651 83
130 654 130
131 655 74
131 651 81
132 651 82
134 651 84
130 655 130
131 656 74
132 651 81
131 651 80
133 651 82
134 651 83
130 656 130
131 657 73
132 650 82
130 657 130
131 658 73
130 658 130
132 659 73
132 658 73
130 659 130
132 660 73
130 660 130
132 661 72
130 661 130
131 663 73
132 662 72
130 662 130
131 664 73
130 663 130
131 665 72
130 664 130
131 666 72
130 665 130
130 666 73
130 666 130
131 667 72
130 667 130
131 668 71
130 668 131
131 669 71
131 669 132
131 670 71
131 671 71
130 670 131
131 672 71
130 671 131
131 673 71
131 672 132
131 674 71
131 673 132
131 675 71
131 674 132
131 676 71
130 675 133
131 677 71
130 676 133
132 677 71
130 677 133
132 678 71
130 678 133
132 679 71
130 679 133
132 680 71
130 680 133
132 681 71
130 681 133
132 682 71
132 683 71
130 682 133
132 684 71
132 684 72
130 683 133
132 685 72
130 684 133
132 686 72
130 685 133
132 687 72
130 687 133
132 688 72
132 689 72
130 688 133
132 690 72
133 688 72
130 689 133
132 691 72
130 690 133
132 692 72
130 691 133
132 693 72
130 692 133
132 694 72
130 693 133
132 695 73
130 694 133
131 696 72
132 696 73
130 695 133
132 695 72
132 697 73
130 695 134
132 698 73
130 696 134
132 699 73
130 697 134
133 698 74
130 698 134
132 700 73
130 700 134
132 701 74
132 702 74
130 701 135
131 702 73
132 701 73
131 701 135
131 703 73
131 702 135
132 703 74
130 703 135
132 704 74
130 704 135
132 705 74
130 705 135
131 707 74
132 706 74
130 706 135
131 708 74
132 708 75
129 707 135
132 709 75
130 708 136
132 710 75
130 709 136
132 711 75
130 710 136
131 710 137
132 712 75
130 711 136
131 711 137
132 713 75
130 712 136
130 712 137
132 714 76
130 713 136
130 713 137
132 714 75
131 714 137
133 715 76
133 716 76
133 717 76
131 716 138
133 718 76
131 718 139
134 719 76
134 720 77
134 719 77
134 718 76
135 721 77
135 722 77
131 722 139
135 723 77
135 723 78
131 723 139
136 724 78
136 723 78
130 724 140
136 725 78
135 728 80
136 726 79
136 727 79
136 727 80
135 730 81
135 731 80
135 731 81
135 730 82
135 732 81
135 731 82
130 731 140
135 732 82
130 732 140
135 733 82
130 733 141
134 734 84
134 736 84
130 734 140
134 735 85
130 735 141
134 736 85
134 737 85
130 736 141
134 738 85
134 737 86
131 737 141
134 738 86
131 738 141
134 739 86
134 740 86
131 739 141
134 740 87
134 739 87
131 740 142
134 741 87
131 741 142
134 742 87
131 742 142
130 743 142
134 743 87
131 743 142
131 744 142
135 744 87
135 743 87
131 744 143
131 745 143
135 745 87
131 746 143
131 745 144
131 746 144
135 746 87
131 747 143
131 747 144
132 746 144
135 747 87
131 749 144
132 747 145
132 748 145
135 748 87
135 749 87
131 749 145
131 750 144
135 750 87
135 750 88
131 751 144
131 750 145
135 751 88
130 752 144
131 751 145
135 752 88
131 752 144
135 754 88
136 752 88
130 753 144
131 752 145
135 756 88
136 753 88
130 753 143
131 753 145
135 757 88
130 754 145
135 758 88
136 755 88
130 755 145
135 759 88
135 759 89
130 756 145
135 760 89
130 757 145
130 757 146
135 761 89
130 758 145
130 758 146
135 762 89
130 759 146
135 763 89
136 760 89
130 760 146
135 764 89
136 761 89
130 761 146
135 765 89
130 762 146
130 762 147
135 766 89
136 763 89
130 763 146
130 763 147
135 767 89
136 764 89
130 764 147
134 769 90
130 765 147
135 768 90
130 766 147
130 766 148
134 770 90
135 769 90
130 767 147
130 767 148
134 771 90
135 770 90
130 768 147
130 768 148
134 772 91
130 769 148
133 774 91
130 770 148
134 773 91
133 775 91
130 771 148
130 771 149
134 774 91
134 775 92
130 772 149
130 772 150
134 775 91
130 773 149
134 776 92
130 774 149
130 774 150
134 777 92
134 778 93
130 775 149
130 775 150
135 776 92
134 779 93
130 776 150
135 778 93
134 780 94
130 777 151
130 778 151
135 779 93
134 781 94
131 778 151
135 780 93
134 782 94
130 779 151
133 783 95
134 782 95
130 780 151
130 781 151
133 784 95
134 783 95
130 782 151
131 781 152
133 785 96
131 782 152
130 783 152
134 784 95
134 784 96
130 784 152
131 783 152
133 786 97
134 785 96
131 784 152
133 787 97
130 785 152
131 785 152
133 788 98
134 786 97
130 787 151
133 789 98
134 788 98
130 787 152
133 791 99
130 789 151
131 788 152
134 790 99
133 792 100
130 790 151
131 789 152
134 791 100
134 791 99
131 790 152
131 791 152
133 794 101
131 792 152
131 791 153
134 793 101
133 795 101
130 793 152
131 792 153
134 794 101
134 795 101
131 793 152
130 794 152
131 793 153
133 797 102
130 795 152
131 794 153
134 796 102
134 797 102
130 796 152
130 795 153
133 799 103
130 797 152
130 796 153
134 798 103
133 800 103
130 798 152
130 797 153
133 801 104
134 799 103
130 798 153
130 799 153
133 802 104
130 800 153
130 799 154
134 801 104
134 802 104
130 800 154
130 801 154
133 804 105
134 803 105
130 802 154
133 805 106
133 805 107
130 803 154
134 804 105
133 806 107
130 804 154
134 805 106
130 805 154
130 804 155
133 807 107
133 808 108
129 805 154
130 805 155
133 808 107
130 806 154
130 806 155
133 809 108
133 809 109
130 807 154
130 807 155
133 810 109
134 809 108
130 808 154
131 808 154
133 811 109
133 811 110
133 812 111
131 809 154
131 809 155
133 812 110
134 811 109
133 813 111
133 813 112
131 810 154
131 811 154
134 812 110
132 814 112
132 814 113
133 814 112
132 815 114
131 812 153
131 812 154
132 815 113
133 815 113
131 816 115
132 816 115
131 813 153
132 812 154
132 816 116
131 814 153
132 816 114
131 817 116
132 814 153
131 817 117
132 817 116
132 815 153
130 818 118
131 818 118
132 816 152
131 818 117
131 819 119
131 818 151
132 817 152
131 819 118
130 820 120
130 819 149
131 818 150
131 817 150
131 820 120
130 820 148
130 820 149
131 819 150
130 820 121
130 821 147
130 821 148
130 821 121
130 822 145
130 822 146
130 822 147
131 822 121
130 822 122
130 823 144
129 822 144
130 823 145
131 823 122
130 823 123
130 824 141
130 824 142
129 823 143
131 824 123
130 824 124
130 824 125
130 824 126
130 824 128
129 825 136
129 825 137
129 824 139
130 825 139
130 825 140
131 825 124
130 825 126
130 825 127
130 824 127
130 825 128
130 825 129
130 825 130
130 825 131
129 825 132
129 825 133
129 825 134
130 826 135
130 826 136
130 826 137
130 826 138
132 478 108
132 478 109
132 478 110
132 478 111
132 479 106
132 478 112
131 479 113
131 479 114
132 478 115
131 479 116
131 479 115
131 479 117
132 479 117
131 479 118
131 479 119
132 479 120
131 480 121
132 480 105
132 480 106
132 479 107
131 480 118
131 480 119
131 480 120
131 481 120
131 481 121
131 481 122
131 481 105
130 480 119
132 480 120
130 481 121
131 482 122
131 481 123
131 482 105
132 481 122
131 482 123
131 482 124
131 483 124
131 483 105
132 482 123
132 482 124
132 483 125
132 483 126
131 484 105
132 484 126
132 485 126
133 484 127
133 485 127
133 484 126
133 486 127
133 487 127
133 486 128
133 487 128
133 488 128
133 489 127
133 489 128
133 490 127
133 490 128
131 489 106
133 491 127
133 491 128
131 490 107
132 490 107
132 492 127
131 493 127
131 491 107
132 491 107
132 493 127
131 494 126
132 492 107
132 493 107
133 492 108
131 494 127
132 494 106
132 494 107
131 495 126
132 495 106
133 494 107
132 494 127
133 495 106
133 495 107
133 496 106
133 497 106
132 498 105
133 498 106
132 499 105
133 499 106
131 498 126
133 499 105
133 500 105
131 499 126
133 501 105
134 500 106
131 500 126
133 500 128
132 502 104
133 502 105
132 501 127
131 500 127
133 501 128
132 503 104
134 502 105
133 503 104
134 503 105
133 504 104
133 505 104
133 506 104
133 507 104
131 505 126
132 508 104
133 508 104
132 506 127
133 509 104
134 507 104
131 507 127
132 510 104
133 510 104
130 508 125
131 508 127
133 511 104
134 509 104
131 509 127
134 510 104
132 513 104
131 510 127
133 513 104
134 511 104
131 511 126
131 512 126
131 511 127
132 511 127
132 514 104
133 514 104
131 512 127
132 512 127
132 515 104
133 515 104
131 513 126
132 513 127
132 516 104
133 516 104
132 514 127
133 517 105
133 518 105
132 515 127
134 517 105
134 518 105
131 516 126
131 517 127
133 519 105
133 520 106
132 517 127
134 519 105
133 521 106
132 518 127
134 520 106
133 522 106
131 519 127
134 521 106
132 523 107
131 520 126
133 523 106
133 523 107
131 521 126
132 524 107
133 524 107
131 522 126
132 525 107
133 525 107
131 523 126
132 526 107
129 525 108
131 524 126
133 526 107
132 527 107
132 525 127
132 528 106
129 526 108
131 526 127
132 528 107
131 529 107
131 527 127
132 529 106
131 530 107
131 528 127
131 530 106
132 530 106
131 529 127
131 530 127
130 532 126
131 531 127
131 532 127
131 533 106
131 533 127
132 534 105
131 534 127
131 535 127
131 536 127
131 537 127
131 538 127
131 539 105
131 539 127
131 540 105
131 540 127
131 541 105
131 541 127
131 542 104
131 542 127
131 543 104
131 543 127
131 544 127
131 545 127
131 546 103
131 546 127
131 547 127
131 548 127
131 549 127
131 550 102
131 550 127
131 551 127
131 552 127
131 553 127
131 554 127
131 555 101
131 555 127
132 556 127
132 557 127
132 558 127
131 559 100
132 559 127
131 560 100
131 560 127
131 561 127
131 562 127
131 563 127
132 564 127
131 565 99
132 565 127
131 566 99
132 566 127
131 567 98
132 567 127
132 568 127
132 569 127
132 570 127
131 570 98
132 572 126
131 572 97
132 573 126
132 574 126
132 575 126
132 576 126
131 576 96
132 577 126
131 577 96
132 578 126
131 578 96
132 579 126
132 580 126
132 581 126
132 582 126
131 582 96
132 583 126
131 583 95
132 584 126
131 584 95
132 585 126
132 586 126
132 587 126
132 588 126
131 588 95
131 589 126
131 589 94
132 589 126
132 590 126
131 591 127
131 592 127
131 593 127
131 594 127
131 595 93
131 595 127
131 596 127
131 597 127
131 598 127
131 599 127
131 600 127
131 601 93
131 601 127
131 602 93
131 602 127
131 603 127
131 604 127
131 605 128
131 606 128
131 607 128
131 608 128
131 609 128
131 610 92
131 610 129
131 611 92
131 611 129
131 612 92
132 612 129
131 613 92
131 613 129
131 614 129
131 616 130
131 616 129
131 617 129
131 618 130
131 619 130
131 620 130
131 621 91
131 621 130
131 622 91
131 622 130
131 623 91
131 623 130
131 624 131
131 625 131
131 626 131
131 627 130
131 628 130
131 629 130
131 630 130
131 631 130
131 632 130
131 633 130
131 634 130
131 635 91
131 635 130
131 636 91
131 636 130
131 637 91
131 638 91
131 637 130
132 639 90
132 638 91
131 638 130
131 639 91
131 639 130
131 640 91
131 640 130
130 641 91
131 641 130
130 642 91
131 642 130
130 643 91
131 643 130
131 644 89
131 644 90
131 644 129
132 645 89
131 645 129
132 646 88
131 646 129
133 647 88
132 645 88
131 647 129
133 646 88
134 647 88
131 648 129
133 647 87
134 648 87
131 649 130
135 649 87
134 647 87
131 650 129
135 651 86
135 650 86
131 651 129
135 651 85
131 652 129
131 653 75
131 653 76
135 650 85
131 653 129
132 654 74
131 654 75
131 651 79
135 651 84
131 654 129
132 650 81
133 650 82
134 650 83
131 655 129
132 656 73
131 656 129
131 657 74
131 657 129
132 657 73
131 658 130
132 660 72
131 659 130
133 660 72
133 659 73
131 660 130
133 661 72
132 663 72
131 661 130
133 662 72
131 662 130
132 664 72
131 663 130
132 664 71
131 664 131
131 666 71
131 665 131
131 667 71
131 666 131
132 667 71
131 667 131
132 668 71
131 668 131
132 669 71
132 670 71
131 669 131
132 670 70
131 670 132
132 671 70
131 671 132
132 672 71
132 672 132
132 673 71
132 673 132
132 674 71
132 674 132
132 675 71
132 675 132
132 676 71
131 676 133
133 677 71
131 677 133
133 678 71
131 678 133
133 679 71
131 679 133
133 680 71
131 680 133
133 681 71
131 681 133
133 682 71
133 682 72
131 682 132
133 683 72
133 684 72
131 683 132
133 685 72
131 684 132
133 686 72
131 685 132
133 687 72
131 686 132
133 689 72
131 688 133
133 690 72
134 688 73
132 688 133
133 691 72
134 689 73
131 689 133
134 690 73
131 690 133
133 692 72
131 691 133
133 693 73
131 692 133
133 694 73
132 693 134
133 694 72
131 694 134
133 695 73
133 696 73
131 695 134
133 697 73
134 696 74
131 696 134
133 698 73
131 697 134
133 699 74
131 698 134
133 700 74
131 699 134
133 701 74
131 700 135
133 702 74
133 703 74
132 701 135
131 704 73
133 704 74
131 703 135
133 705 74
131 703 136
133 706 74
131 704 135
132 707 74
131 705 136
132 708 74
131 706 136
133 708 75
133 707 74
131 707 136
133 708 74
133 709 75
131 708 136
133 710 75
131 709 136
131 709 137
133 711 75
132 710 137
133 712 75
131 712 137
133 713 75
132 712 137
133 714 76
131 713 137
133 714 75
131 714 138
134 715 76
131 715 138
134 716 76
132 716 138
134 717 76
134 718 77
135 719 77
135 720 77
135 718 77
131 720 139
136 721 78
132 721 139
136 722 78
136 720 78
131 722 140
136 724 79
136 725 79
136 726 80
137 725 79
136 728 80
136 728 81
136 729 80
136 729 81
136 730 81
136 729 82
136 730 82
135 731 83
131 729 141
135 732 83
135 733 83
131 730 141
135 732 84
135 733 84
131 731 141
135 734 83
131 732 141
135 734 84
135 733 85
131 733 141
135 734 85
131 734 141
135 735 85
131 735 141
134 736 86
135 736 86
135 737 86
131 736 141
134 738 87
131 738 142
135 739 87
135 738 87
131 739 142
135 740 87
132 740 142
135 741 87
132 741 143
131 742 143
135 742 87
136 742 87
132 742 143
131 743 143
136 743 87
136 744 87
132 743 143
132 743 144
132 744 144
136 745 87
132 745 144
132 742 144
132 744 145
132 745 145
136 746 87
132 746 145
133 745 145
133 744 145
136 747 87
133 746 146
133 747 146
133 745 146
133 747 147
136 748 87
132 749 145
132 749 146
133 748 146
136 749 87
136 748 88
132 750 145
133 749 146
133 748 147
136 750 87
132 750 146
133 749 147
136 750 88
132 751 145
136 751 88
132 751 146
136 754 88
136 749 88
132 752 145
132 752 146
136 756 88
137 753 88
132 753 146
136 757 88
131 754 146
136 758 88
131 755 146
136 759 88
137 756 88
131 756 146
131 756 147
137 757 88
137 758 88
131 757 146
131 757 147
137 759 88
131 758 147
136 762 89
137 759 89
131 759 147
137 760 89
137 761 89
131 760 147
131 760 148
137 762 89
131 761 147
131 761 148
136 765 89
131 762 147
131 762 148
136 766 89
137 763 89
131 763 148
131 764 148
136 767 89
137 764 89
131 764 149
136 768 90
131 765 148
136 769 90
131 766 148
131 766 149
135 771 90
131 767 149
136 770 90
135 772 91
131 768 149
135 772 90
136 771 90
131 769 149
131 769 150
135 773 91
130 770 149
131 770 150
135 774 91
136 772 91
131 771 150
130 771 150
135 775 91
135 775 92
131 772 150
136 773 91
131 773 150
131 773 151
135 777 92
131 774 151
131 775 151
136 775 92
135 778 92
130 775 151
131 775 152
136 776 92
136 777 92
131 776 151
131 776 152
135 780 94
131 777 152
131 777 153
136 778 93
135 781 94
131 778 152
131 778 153
136 779 93
135 782 94
131 779 152
131 779 153
132 779 154
135 783 94
131 780 152
131 780 153
135 783 95
135 784 95
131 781 153
131 782 153
136 782 94
135 785 95
131 783 153
131 782 154
131 781 154
134 786 96
135 785 96
131 784 153
131 783 154
134 787 97
135 786 96
131 785 153
131 784 154
134 788 97
135 787 97
131 786 152
131 786 153
135 787 96
134 789 98
130 786 152
131 787 153
135 788 97
134 790 98
131 787 152
131 788 153
131 787 154
135 789 98
135 789 97
131 789 153
131 788 154
131 788 155
135 790 98
134 792 100
131 790 153
131 789 154
135 791 99
134 793 100
131 790 154
131 791 154
135 792 100
134 794 100
132 791 154
131 792 154
135 793 100
135 794 100
131 793 154
132 792 155
134 796 101
131 794 154
131 793 155
135 795 101
135 796 101
131 795 154
131 794 155
134 798 102
131 795 153
131 796 154
131 795 155
134 799 102
135 798 102
131 797 154
131 796 155
131 796 156
134 800 103
130 797 154
131 797 155
131 798 155
134 801 103
135 799 102
130 798 154
131 799 155
131 798 156
135 800 102
135 801 103
131 800 155
130 799 155
131 799 156
134 803 104
130 800 155
131 800 156
134 804 104
135 803 104
131 802 155
131 801 156
134 805 105
135 804 104
131 803 155
131 802 156
134 806 106
134 806 105
130 803 155
131 803 156
134 807 106
134 807 107
131 804 155
131 805 155
134 808 107
131 806 155
131 805 156
134 809 107
135 807 106
131 807 155
135 808 107
134 810 108
132 807 155
134 811 108
135 809 107
131 808 155
134 812 109
132 809 155
132 809 156
135 810 108
134 813 110
132 811 154
132 810 155
134 813 111
135 812 109
134 814 111
134 814 112
132 811 155
132 812 155
135 812 108
133 815 112
134 815 111
134 815 112
132 813 154
133 812 155
133 816 113
133 816 114
132 813 153
132 814 154
132 817 115
133 817 115
133 814 154
133 813 155
133 817 114
132 816 153
132 818 116
132 818 117
133 816 153
133 816 154
133 818 116
132 819 117
132 818 152
132 819 116
132 818 151
133 818 153
131 820 118
131 820 119
132 819 151
132 820 151
132 820 118
131 821 119
131 820 149
131 820 150
132 821 119
131 821 120
131 821 149
131 822 149
131 822 120
131 823 146
131 823 147
131 823 121
131 824 144
131 824 145
130 823 146
131 824 122
132 824 122
131 825 142
130 825 142
131 825 143
132 825 122
132 825 123
132 826 123
130 826 139
131 826 140
131 826 141
131 826 142
132 826 124
131 826 125
131 826 126
131 826 127
131 826 128
130 826 129
130 826 130
130 826 131
130 826 132
130 826 133
130 826 134
131 827 136
130 827 136
131 827 137
131 827 138
131 827 139
133 478 106
133 477 109
133 478 110
133 478 111
133 478 112
132 478 113
132 478 114
133 478 105
133 478 114
132 479 115
132 478 116
132 478 117
132 479 118
133 478 119
133 478 120
132 479 105
132 479 119
133 479 120
133 479 121
133 479 122
132 481 104
132 481 105
133 480 105
132 480 121
132 480 122
132 481 123
132 482 105
133 480 122
132 481 124
133 481 124
133 481 123
132 482 125
133 482 125
133 483 127
132 483 105
133 483 126
133 482 126
134 483 127
134 484 128
132 484 105
134 484 127
134 485 128
134 486 128
135 484 129
132 485 105
134 487 128
135 485 129
132 486 106
134 488 128
134 489 128
134 490 128
135 488 129
135 488 130
134 491 128
133 492 128
134 491 129
132 489 107
133 491 108
134 492 128
133 493 128
134 492 129
133 491 107
133 492 107
134 493 128
133 493 107
133 493 108
133 494 128
134 493 129
134 494 107
134 493 108
132 495 127
134 494 108
134 495 107
131 495 127
134 496 107
135 495 108
131 496 126
134 497 107
135 496 108
132 496 127
134 497 106
135 497 108
132 497 127
134 498 106
134 499 106
132 498 127
134 500 105
132 499 127
133 499 128
134 501 105
132 500 127
131 499 127
134 500 128
135 501 106
135 502 106
133 502 128
135 502 105
135 501 105
134 504 104
135 503 105
134 505 104
135 504 105
134 506 104
135 505 105
134 508 104
135 506 104
132 505 127
133 506 127
135 507 104
135 508 104
132 507 127
132 508 127
135 509 104
135 510 104
132 509 127
133 509 128
133 511 103
134 511 103
132 510 127
133 510 128
133 512 103
135 511 104
131 510 126
133 510 127
133 511 128
134 512 103
134 513 104
133 512 128
134 514 104
135 512 104
130 512 126
133 513 128
134 515 104
135 513 104
133 514 128
134 516 104
135 514 104
131 514 126
135 515 104
135 517 105
132 516 127
135 516 104
135 518 105
133 516 127
135 517 104
135 519 105
133 517 127
135 520 105
135 520 106
133 518 127
134 522 106
135 521 106
132 519 127
135 522 106
134 523 106
132 520 127
135 523 106
134 524 107
132 521 127
135 524 106
134 525 107
132 522 127
135 524 107
134 526 107
132 523 127
135 525 107
133 527 107
132 524 127
133 528 106
134 527 107
132 526 127
133 525 127
133 528 107
134 528 106
133 526 127
133 529 106
134 528 107
132 527 127
133 530 106
134 529 106
132 528 127
132 531 106
134 530 106
132 529 127
132 530 127
133 531 106
133 531 128
132 532 106
133 532 128
132 533 106
132 533 127
133 534 128
132 535 127
133 536 128
132 537 105
132 537 127
132 538 105
132 538 127
133 539 104
132 539 127
132 540 105
132 540 127
132 541 104
132 541 127
132 542 127
132 543 127
132 544 127
132 545 104
132 545 127
132 546 127
131 548 126
132 547 127
132 548 127
132 548 103
132 549 127
132 550 127
132 551 127
132 552 127
132 553 102
132 553 127
132 554 101
132 554 127
132 555 127
132 556 101
133 556 127
133 557 127
132 558 100
133 558 127
132 559 100
132 560 127
132 561 127
132 562 127
133 562 127
132 563 99
132 563 127
132 564 99
133 564 127
132 565 99
133 565 127
133 566 127
133 567 127
133 568 127
133 569 127
132 570 97
133 570 127
132 571 97
133 571 127
133 572 127
133 573 126
133 574 126
132 574 97
133 575 126
132 576 96
133 576 126
133 577 126
133 578 126
133 579 126
132 580 96
133 580 126
132 581 96
133 581 126
132 582 96
133 582 126
133 583 126
133 584 126
133 585 126
132 586 95
133 586 126
132 587 95
133 587 126
132 588 94
132 589 127
132 590 127
131 590 127
132 591 127
132 591 126
132 593 94
132 593 127
131 594 94
133 594 126
133 595 126
133 596 126
132 597 127
132 598 93
133 598 126
132 599 93
133 599 126
132 600 93
132 600 127
132 601 127
132 602 127
132 603 127
132 604 127
132 605 127
132 606 127
132 607 92
132 607 128
132 608 92
132 608 128
132 609 92
132 609 128
132 610 92
132 610 128
132 611 128
132 612 128
132 613 129
132 614 129
132 615 129
132 616 129
132 617 129
132 618 130
132 619 130
132 620 130
132 621 91
132 621 130
132 622 91
132 622 130
132 623 130
132 624 130
132 625 130
132 626 130
132 627 130
132 628 130
133 629 90
132 629 130
132 630 91
132 631 91
132 630 130
133 632 90
132 631 130
132 632 91
132 633 91
132 632 130
133 633 90
132 634 91
132 633 130
133 634 90
132 635 91
132 634 130
133 635 91
132 635 130
132 636 91
132 636 130
132 637 130
132 638 130
132 640 90
132 639 130
132 641 90
132 640 129
133 641 89
132 641 129
132 643 89
132 642 90
132 642 129
132 643 90
132 644 90
132 643 129
132 644 89
132 644 129
133 644 89
132 645 129
133 645 88
134 646 88
132 646 129
134 646 87
132 647 129
135 648 87
132 648 129
135 649 86
132 649 129
135 648 86
135 647 87
132 650 129
135 650 84
136 649 86
132 651 129
136 650 85
132 652 129
133 653 74
132 652 76
132 651 77
130 651 79
132 650 80
135 650 83
132 653 129
132 655 74
134 650 82
131 650 80
133 649 82
134 649 83
132 654 129
132 655 129
133 656 73
132 656 129
133 657 73
132 657 129
133 658 73
132 658 129
133 659 72
134 658 73
132 659 130
134 660 72
134 661 72
132 660 130
133 663 72
132 661 130
133 663 71
132 662 130
133 664 71
132 663 130
132 665 71
131 664 130
132 666 71
132 665 131
133 666 71
132 666 131
133 667 71
132 667 131
133 668 71
133 668 70
132 668 132
132 669 70
132 669 132
133 670 70
132 670 132
133 671 70
132 671 132
133 672 71
133 672 132
133 673 71
133 673 132
133 674 71
132 674 133
133 675 71
133 676 71
132 676 132
134 676 71
134 677 71
132 677 132
134 678 71
132 676 133
134 679 71
132 678 132
134 680 71
134 680 72
132 679 132
134 681 71
134 681 72
132 680 132
134 682 72
132 681 132
134 683 72
132 682 132
134 684 72
134 685 72
132 683 132
134 686 72
134 686 73
132 684 132
134 687 72
132 685 132
134 687 73
132 686 132
135 687 73
133 688 133
135 688 73
132 689 133
134 691 73
132 690 133
134 692 73
135 690 73
132 691 133
133 693 72
134 693 73
133 692 134
134 694 73
132 692 133
134 695 73
133 693 134
134 696 73
132 694 134
134 697 73
134 697 74
132 695 134
134 698 74
135 696 74
132 696 134
134 699 74
132 697 134
134 700 74
132 698 135
134 701 74
132 699 135
134 702 74
132 700 135
134 703 74
132 701 136
134 704 74
135 702 75
132 702 136
134 705 74
135 703 75
132 703 136
134 706 75
132 704 136
134 706 74
132 705 136
134 707 75
132 706 136
134 708 75
132 707 137
134 709 75
135 708 76
132 708 137
134 710 75
135 709 76
132 709 137
134 711 75
132 710 138
133 710 138
134 712 76
132 711 137
132 711 138
134 712 75
132 713 137
132 712 138
134 713 76
132 713 138
133 713 138
134 714 76
132 714 138
135 715 76
135 716 76
135 717 76
132 717 139
135 717 77
135 716 77
132 718 139
136 719 77
132 719 139
136 720 77
132 720 139
136 719 78
137 722 78
137 722 79
137 723 78
137 724 79
137 723 79
137 725 80
137 726 80
137 727 80
137 727 81
137 728 81
137 726 81
137 728 82
132 728 141
136 730 83
132 729 141
136 731 83
136 730 84
132 730 141
136 731 84
136 732 84
136 732 85
136 733 85
135 734 86
135 735 86
132 734 141
136 735 86
136 734 86
132 735 141
135 737 87
132 736 141
136 737 87
132 737 142
136 738 87
136 739 87
132 738 142
132 739 142
136 740 87
132 739 143
133 739 143
136 741 87
132 740 143
133 740 143
137 741 87
132 741 144
133 741 144
137 742 87
137 740 87
133 742 144
133 742 145
136 745 88
133 743 145
133 744 146
136 746 88
134 742 145
134 744 146
134 743 146
136 747 88
134 745 146
134 745 147
134 744 147
137 746 88
134 746 147
134 747 147
134 746 148
137 747 88
137 748 88
134 748 147
134 747 148
137 749 88
133 750 146
134 748 148
137 750 88
133 750 147
133 750 148
137 751 88
133 751 147
133 751 148
137 752 88
133 752 147
133 752 148
137 754 88
137 755 88
132 753 147
133 753 147
138 753 88
132 754 147
138 754 88
132 755 147
138 755 88
138 756 88
132 756 147
132 755 148
138 757 88
138 756 89
132 757 147
132 756 148
138 757 89
132 757 148
138 758 88
138 758 89
132 758 148
138 759 88
138 759 89
132 759 148
138 760 89
132 760 148
132 760 149
138 761 89
132 761 149
132 761 150
137 765 89
132 762 149
137 766 89
138 763 89
132 763 149
137 767 89
138 764 89
132 765 149
132 764 150
137 768 90
131 765 149
132 765 150
137 769 90
138 767 90
132 766 150
137 770 90
138 768 90
131 767 150
137 771 90
131 768 150
137 772 91
132 769 151
131 769 151
136 774 91
132 770 152
137 773 91
136 775 91
131 771 151
137 774 91
137 775 92
132 772 152
131 772 152
137 775 91
132 773 152
132 773 153
137 776 92
131 774 152
132 774 153
136 778 92
137 777 92
132 775 153
132 776 153
132 775 154
132 775 155
137 778 92
136 780 93
131 776 153
132 776 154
132 776 155
137 779 93
132 777 153
132 777 154
132 777 155
132 777 156
133 777 157
136 781 93
136 781 94
132 778 154
132 778 155
132 778 156
133 778 157
137 780 93
137 781 93
132 780 154
132 779 155
132 779 156
132 780 157
136 783 94
136 783 95
132 780 153
132 780 155
132 780 156
132 781 156
133 780 157
136 784 95
132 781 154
132 781 155
132 782 155
132 781 157
132 782 157
137 782 94
136 785 95
131 782 155
132 783 155
132 782 156
132 783 156
132 783 157
136 786 95
136 786 96
131 783 155
131 784 155
131 783 156
132 784 156
132 784 157
136 787 96
131 785 154
131 785 155
131 784 156
132 785 156
136 788 96
136 788 97
131 786 154
132 786 156
131 785 156
132 785 157
136 789 97
137 787 96
131 786 155
131 786 156
132 787 156
132 786 157
135 791 98
132 788 155
131 787 155
131 787 156
132 787 157
136 790 98
136 790 97
132 789 155
132 788 156
132 788 157
132 788 158
135 792 99
136 791 99
131 789 155
132 789 156
135 793 99
132 790 155
132 790 156
136 792 99
136 793 99
132 791 155
132 791 156
132 791 157
135 795 100
132 792 156
132 792 157
136 794 100
135 796 100
132 793 155
132 793 156
132 793 157
135 797 101
136 795 100
132 794 156
132 795 156
135 798 101
136 796 100
132 796 156
132 795 157
135 799 101
136 798 101
132 797 156
132 796 157
136 799 101
135 801 102
131 797 156
132 798 156
136 800 101
135 802 103
132 798 157
132 799 157
135 802 102
136 801 102
132 800 157
132 797 157
135 803 103
135 804 103
130 801 155
132 801 157
135 805 104
132 803 156
132 802 157
136 804 103
135 806 105
130 802 155
132 803 157
135 806 104
136 805 104
132 804 156
131 804 156
135 807 105
135 808 106
132 805 156
135 808 105
136 807 105
132 805 157
135 809 106
132 806 156
135 810 107
136 809 106
132 807 156
135 811 107
135 811 108
132 808 156
136 810 107
136 811 107
132 808 155
133 809 156
135 813 109
135 813 110
133 810 156
136 812 108
135 814 110
133 811 155
133 811 156
135 814 109
135 815 110
135 815 111
134 816 112
133 813 154
134 812 156
136 814 109
134 816 113
135 816 112
134 813 155
135 816 111
134 817 113
133 815 154
134 817 114
133 818 115
134 815 155
134 818 114
134 816 154
133 819 115
133 817 153
134 817 154
133 819 116
132 820 117
133 818 152
133 820 116
133 820 117
133 819 152
134 819 153
132 821 118
133 820 151
133 820 152
133 821 117
133 821 118
132 821 150
133 821 151
133 822 118
132 822 119
132 823 148
132 822 149
132 822 150
132 823 120
132 822 120
132 823 147
131 823 148
132 824 120
132 825 144
132 825 145
132 824 146
133 825 120
132 826 143
132 826 144
133 826 122
133 825 122
133 826 123
132 827 141
132 827 142
131 826 143
133 827 123
132 827 124
132 827 125
132 827 126
132 827 127
131 827 128
131 827 129
131 827 130
131 827 131
131 827 132
132 828 133
132 828 134
132 828 135
132 828 136
132 828 137
132 828 138
132 828 139
132 828 126
132 828 127
133 828 127
132 828 128
132 828 129
132 828 130
132 828 131
132 828 132
131 828 133
132 829 134
132 829 135
131 828 136
132 829 137
134 477 110
134 477 111
134 477 106
134 477 112
133 478 113
134 477 113
134 477 114
133 478 115
133 478 116
133 478 117
133 478 118
134 477 119
134 478 118
133 479 119
134 478 120
134 478 121
134 479 122
133 479 105
134 479 121
134 479 123
133 480 104
133 480 123
134 480 124
133 481 104
133 481 125
134 481 125
133 483 105
134 482 125
134 482 126
134 482 127
135 482 126
135 483 127
135 483 128
135 482 128
135 485 128
133 486 106
135 486 129
135 487 129
133 487 106
135 489 129
135 490 129
135 489 130
133 490 107
134 490 108
135 491 129
135 490 130
134 491 108
134 492 108
135 492 129
134 494 128
135 491 130
134 490 107
135 491 108
133 495 128
134 494 129
135 493 129
135 493 108
135 494 108
133 496 128
135 494 129
135 494 109
135 493 109
131 496 127
134 495 129
135 496 107
135 497 107
133 497 128
135 498 107
136 496 108
134 497 128
135 499 107
136 497 108
133 498 128
135 499 106
136 498 108
134 498 128
135 500 106
136 499 108
134 499 129
134 498 129
136 500 106
136 500 107
136 501 107
136 502 106
136 501 106
135 504 104
136 503 106
135 505 104
136 504 105
136 505 105
136 506 105
136 506 104
136 507 104
133 505 127
134 506 128
136 508 104
137 507 105
134 507 128
136 509 104
136 510 104
133 508 127
136 511 104
137 509 104
131 509 126
134 509 128
135 512 103
136 512 104
134 510 128
136 513 104
137 511 104
134 511 128
136 514 104
137 512 104
134 512 128
136 515 104
136 516 105
134 513 128
136 516 104
136 517 105
134 514 128
137 515 104
137 516 105
133 515 127
133 515 128
136 518 105
137 517 105
133 516 128
136 519 105
137 518 105
133 517 128
134 517 128
136 520 105
136 520 106
133 519 127
136 521 106
137 519 105
134 519 127
136 522 106
137 520 106
133 520 127
136 523 106
137 521 106
133 521 127
136 524 106
136 524 107
133 522 127
135 526 107
136 525 107
133 523 127
137 524 106
136 526 107
133 524 127
135 527 107
135 528 106
134 525 127
135 528 107
136 527 107
134 526 127
135 529 106
136 528 106
133 527 127
135 530 106
136 529 106
134 528 128
134 531 106
135 531 106
133 529 127
133 532 106
134 530 128
133 531 127
134 532 106
133 532 127
133 533 128
133 534 127
133 535 128
133 536 105
133 536 127
133 537 127
134 538 104
134 538 128
133 539 127
133 540 127
133 541 128
133 542 128
133 543 128
133 544 104
133 544 128
133 545 103
133 545 128
133 546 128
133 547 128
133 548 102
133 548 128
133 549 102
133 549 127
133 550 127
133 551 127
132 552 102
133 552 127
133 553 101
133 553 127
133 554 127
133 555 127
134 556 128
133 557 100
134 558 127
133 558 100
133 559 127
134 559 127
133 560 127
133 561 127
133 562 99
134 562 127
133 563 99
133 563 127
133 564 99
134 564 128
134 565 128
134 567 127
134 568 127
133 568 98
134 569 127
133 569 98
134 570 127
133 570 97
134 571 127
133 572 126
134 572 127
133 573 97
134 573 127
133 574 96
134 574 126
133 575 96
134 575 126
134 576 126
134 577 126
133 578 96
134 578 126
133 579 96
134 579 126
133 580 96
134 581 127
133 581 96
134 581 126
134 582 127
134 583 126
134 584 126
133 585 95
134 585 126
133 586 95
134 586 126
133 587 94
134 587 126
133 588 126
133 589 126
133 590 94
133 590 126
133 591 94
133 591 126
133 592 93
133 592 126
133 593 126
134 594 126
133 595 127
133 596 93
133 596 127
133 597 93
133 597 126
133 598 127
133 599 127
133 600 127
133 601 127
133 602 127
133 603 127
133 604 127
133 605 92
133 605 127
133 606 91
133 606 127
133 607 91
133 607 127
133 608 91
133 608 127
133 609 128
133 610 128
133 611 128
133 612 128
133 613 128
133 614 128
133 615 129
133 616 129
133 617 129
133 618 91
133 618 129
133 619 91
133 619 129
133 620 91
133 620 129
133 621 129
133 622 129
133 623 129
133 624 91
133 623 91
133 624 130
133 626 90
133 625 91
133 625 130
133 626 91
132 626 91
133 626 130
133 627 90
133 627 91
133 627 130
133 628 90
133 628 91
133 628 130
133 629 91
133 629 130
133 630 130
133 631 91
133 631 129
133 632 129
133 633 129
133 634 129
133 635 129
133 636 90
133 636 129
133 637 90
134 637 90
133 637 129
133 638 90
134 638 90
133 638 129
133 639 90
133 639 129
133 640 90
133 640 129
133 641 90
133 641 129
133 643 88
133 642 129
133 643 89
133 643 129
133 644 88
133 644 128
134 645 88
134 644 88
133 645 128
135 646 87
135 645 88
133 646 128
135 647 86
135 645 87
133 647 129
136 648 86
136 647 86
133 648 129
136 649 85
136 648 85
136 646 86
133 649 129
135 649 84
136 649 84
133 649 128
135 649 83
134 649 82
136 648 84
133 651 129
133 649 81
135 648 83
134 648 82
133 652 129
134 653 74
133 653 75
132 653 75
132 650 79
133 649 80
132 649 80
133 648 81
135 648 82
136 648 83
133 653 129
133 654 74
131 650 79
133 654 129
133 655 129
134 656 73
133 656 129
134 657 73
133 657 129
134 658 72
133 658 129
134 659 72
135 659 73
133 659 129
135 660 72
134 662 72
133 660 130
135 661 72
133 661 130
134 663 71
133 662 130
134 664 71
133 663 130
133 665 71
133 664 131
134 665 71
133 665 131
134 666 71
133 666 131
134 667 71
134 668 71
133 667 131
134 669 71
134 668 131
133 669 70
134 669 131
134 670 70
133 670 132
134 671 71
133 671 132
133 672 70
134 672 131
134 673 71
133 674 132
134 674 71
134 675 71
134 674 132
135 675 71
135 675 72
133 675 132
135 676 71
133 676 132
135 677 72
133 677 132
135 678 72
133 678 132
135 679 72
135 680 72
133 679 132
135 681 72
135 682 72
133 680 132
135 683 72
133 681 132
135 683 73
133 682 132
135 684 72
133 683 132
135 684 73
135 685 73
133 684 132
135 686 73
136 685 73
133 685 132
136 686 73
133 686 132
135 689 73
134 688 133
136 688 73
133 689 133
135 690 74
133 690 133
135 691 73
133 691 133
135 692 73
135 691 74
134 692 134
135 693 73
135 692 74
133 692 133
135 693 74
133 694 134
135 694 73
133 695 134
135 695 73
133 696 134
135 696 73
135 695 74
133 696 135
135 697 74
135 698 74
133 697 135
135 698 75
133 698 135
135 699 75
133 699 135
135 700 75
133 700 135
135 701 75
133 701 136
135 703 74
133 702 136
135 704 74
135 704 75
133 703 136
135 705 75
135 706 75
133 704 136
135 707 75
133 705 137
135 708 75
133 706 137
135 709 75
133 707 137
135 710 75
133 708 137
135 710 76
135 711 76
133 709 137
135 711 75
135 712 76
133 709 138
134 713 75
133 711 138
135 713 76
133 712 138
135 714 76
133 714 138
136 714 76
136 715 77
136 716 77
136 717 77
136 718 77
133 717 139
137 718 78
133 718 139
137 719 78
133 719 140
137 720 78
137 721 78
138 721 79
138 722 79
